-1.301513016223907471e-01,-1.320481747388839722e-01,-1.281688809394836426e-01,-1.281688809394836426e-01,-1.281688809394836426e-01,-1.306645572185516357e-01,-1.306645572185516357e-01,-1.306645572185516357e-01,-1.306645572185516357e-01,-1.309450715780258179e-01,-1.309450715780258179e-01,-1.309450715780258179e-01,-1.347062140703201294e-01,-1.347062140703201294e-01,-1.347062140703201294e-01,-1.309688389301300049e-01,-1.309688389301300049e-01,-1.277143210172653198e-01,-1.277143210172653198e-01,-1.313781291246414185e-01,-1.313781291246414185e-01,-1.265068203210830688e-01,-1.265068203210830688e-01,-1.265068203210830688e-01,-1.217268109321594238e-01,-1.217268109321594238e-01,-1.217268109321594238e-01,-1.217268109321594238e-01,-1.164354607462882996e-01,-1.164354607462882996e-01,-1.105154603719711304e-01,-1.105154603719711304e-01,-1.105154603719711304e-01,-1.052987203001976013e-01,-1.052987203001976013e-01,-1.009269952774047852e-01,-1.097078472375869751e-01,-1.097078472375869751e-01,-1.097078472375869751e-01,-1.043765321373939514e-01,-1.043765321373939514e-01,-1.043765321373939514e-01,-1.012075617909431458e-01,-1.012075617909431458e-01,-1.012075617909431458e-01,-1.008723452687263489e-01,-1.008723452687263489e-01,-1.048670187592506409e-01,-1.048670187592506409e-01,-1.023268029093742371e-01,-1.023268029093742371e-01,-1.023268029093742371e-01,-1.103947609663009644e-01,-1.103947609663009644e-01,-1.103947609663009644e-01,-1.148379072546958923e-01,-1.148379072546958923e-01,-1.361975818872451782e-01,-1.361975818872451782e-01,-1.361975818872451782e-01,-1.441084295511245728e-01,-1.441084295511245728e-01,-1.441084295511245728e-01,-1.519180834293365479e-01,-1.530301868915557861e-01,-1.530301868915557861e-01,-1.530301868915557861e-01,-1.530301868915557861e-01,-1.469697058200836182e-01,-1.469697058200836182e-01,-1.469697058200836182e-01,-1.469697058200836182e-01,-1.390820890665054321e-01,-1.390820890665054321e-01,-1.390820890665054321e-01,-1.328890919685363770e-01,-4.136537387967109680e-02,-4.136537387967109680e-02,1.005594339221715927e-02,1.005594339221715927e-02,-1.056166440248489380e-01,-1.056166440248489380e-01,-4.402834922075271606e-02,-4.402834922075271606e-02,6.736582517623901367e-02,6.736582517623901367e-02,1.819878518581390381e-01,1.819878518581390381e-01,1.819878518581390381e-01,2.451612353324890137e-01,2.451612353324890137e-01,2.451612353324890137e-01,2.822176218032836914e-01,2.822176218032836914e-01,2.822176218032836914e-01,3.047200143337249756e-01,2.781099677085876465e-01,2.781099677085876465e-01,2.781099677085876465e-01,2.781099677085876465e-01,3.208454847335815430e-01,3.208454847335815430e-01,3.208454847335815430e-01,3.208454847335815430e-01,3.403420746326446533e-01,3.403420746326446533e-01,3.403420746326446533e-01,3.403420746326446533e-01,3.385531604290008545e-01,3.385531604290008545e-01,3.385531604290008545e-01,3.379647135734558105e-01,3.349738121032714844e-01,3.349738121032714844e-01,3.349738121032714844e-01,3.322283327579498291e-01
-1.448918879032135010e-01,-1.491392254829406738e-01,-1.449686586856842041e-01,-1.449686586856842041e-01,-1.449686586856842041e-01,-1.508825719356536865e-01,-1.508825719356536865e-01,-1.508825719356536865e-01,-1.508825719356536865e-01,-1.540880501270294189e-01,-1.540880501270294189e-01,-1.540880501270294189e-01,-1.598379611968994141e-01,-1.598379611968994141e-01,-1.598379611968994141e-01,-1.569190770387649536e-01,-1.569190770387649536e-01,-1.529791504144668579e-01,-1.529791504144668579e-01,-1.591285765171051025e-01,-1.591285765171051025e-01,-1.519598662853240967e-01,-1.519598662853240967e-01,-1.519598662853240967e-01,-1.446305811405181885e-01,-1.446305811405181885e-01,-1.446305811405181885e-01,-1.446305811405181885e-01,-1.382957845926284790e-01,-1.382957845926284790e-01,-1.319803297519683838e-01,-1.319803297519683838e-01,-1.319803297519683838e-01,-1.263817697763442993e-01,-1.263817697763442993e-01,-1.216544955968856812e-01,-1.306822299957275391e-01,-1.306822299957275391e-01,-1.306822299957275391e-01,-1.242041587829589844e-01,-1.242041587829589844e-01,-1.242041587829589844e-01,-1.185362711548805237e-01,-1.185362711548805237e-01,-1.185362711548805237e-01,-1.142151728272438049e-01,-1.142151728272438049e-01,-1.212677359580993652e-01,-1.212677359580993652e-01,-1.157624125480651855e-01,-1.157624125480651855e-01,-1.157624125480651855e-01,-1.120542585849761963e-01,-1.120542585849761963e-01,-1.120542585849761963e-01,-1.234137937426567078e-01,-1.234137937426567078e-01,-1.237589120864868164e-01,-1.237589120864868164e-01,-1.237589120864868164e-01,-1.334205269813537598e-01,-1.334205269813537598e-01,-1.334205269813537598e-01,-1.476571708917617798e-01,-1.592417359352111816e-01,-1.592417359352111816e-01,-1.592417359352111816e-01,-1.592417359352111816e-01,-1.643996983766555786e-01,-1.643996983766555786e-01,-1.643996983766555786e-01,-1.643996983766555786e-01,-1.550080925226211548e-01,-1.550080925226211548e-01,-1.550080925226211548e-01,-1.547170728445053101e-01,-6.406590342521667480e-02,-6.406590342521667480e-02,-1.125932857394218445e-02,-1.125932857394218445e-02,-1.361591815948486328e-01,-1.361591815948486328e-01,-7.616803050041198730e-02,-7.616803050041198730e-02,4.570628330111503601e-02,4.570628330111503601e-02,1.465471684932708740e-01,1.465471684932708740e-01,1.465471684932708740e-01,2.033143341541290283e-01,2.033143341541290283e-01,2.033143341541290283e-01,2.358890473842620850e-01,2.358890473842620850e-01,2.358890473842620850e-01,2.561910748481750488e-01,2.319556623697280884e-01,2.319556623697280884e-01,2.319556623697280884e-01,2.319556623697280884e-01,2.754599750041961670e-01,2.754599750041961670e-01,2.754599750041961670e-01,2.754599750041961670e-01,2.984698116779327393e-01,2.984698116779327393e-01,2.984698116779327393e-01,2.984698116779327393e-01,2.975141704082489014e-01,2.975141704082489014e-01,2.975141704082489014e-01,2.954818010330200195e-01,2.943850159645080566e-01,2.943850159645080566e-01,2.943850159645080566e-01,2.923567593097686768e-01
-1.750673353672027588e-01,-1.885358989238739014e-01,-1.826818585395812988e-01,-1.826818585395812988e-01,-1.826818585395812988e-01,-1.945071816444396973e-01,-1.945071816444396973e-01,-1.945071816444396973e-01,-1.945071816444396973e-01,-1.983192563056945801e-01,-1.983192563056945801e-01,-1.983192563056945801e-01,-2.042792737483978271e-01,-2.042792737483978271e-01,-2.042792737483978271e-01,-1.983242779970169067e-01,-1.983242779970169067e-01,-1.899812370538711548e-01,-1.899812370538711548e-01,-1.958429813385009766e-01,-1.958429813385009766e-01,-1.843198686838150024e-01,-1.843198686838150024e-01,-1.843198686838150024e-01,-1.717104315757751465e-01,-1.717104315757751465e-01,-1.717104315757751465e-01,-1.717104315757751465e-01,-1.602972000837326050e-01,-1.602972000837326050e-01,-1.495349407196044922e-01,-1.495349407196044922e-01,-1.495349407196044922e-01,-1.406619846820831299e-01,-1.406619846820831299e-01,-1.319987326860427856e-01,-1.454096138477325439e-01,-1.454096138477325439e-01,-1.454096138477325439e-01,-1.343757212162017822e-01,-1.343757212162017822e-01,-1.343757212162017822e-01,-1.259797513484954834e-01,-1.259797513484954834e-01,-1.259797513484954834e-01,-1.203415542840957642e-01,-1.203415542840957642e-01,-1.316613405942916870e-01,-1.316613405942916870e-01,-1.241029202938079834e-01,-1.241029202938079834e-01,-1.241029202938079834e-01,-1.200330853462219238e-01,-1.200330853462219238e-01,-1.200330853462219238e-01,-1.354846805334091187e-01,-1.354846805334091187e-01,-1.333066672086715698e-01,-1.333066672086715698e-01,-1.333066672086715698e-01,-1.448592543601989746e-01,-1.448592543601989746e-01,-1.448592543601989746e-01,-1.593818068504333496e-01,-1.646674275398254395e-01,-1.646674275398254395e-01,-1.646674275398254395e-01,-1.646674275398254395e-01,-1.702906191349029541e-01,-1.702906191349029541e-01,-1.702906191349029541e-01,-1.702906191349029541e-01,-1.496170908212661743e-01,-1.496170908212661743e-01,-1.496170908212661743e-01,-1.513291448354721069e-01,-2.639500610530376434e-02,-2.639500610530376434e-02,4.219190403819084167e-02,4.219190403819084167e-02,-1.386636197566986084e-01,-1.386636197566986084e-01,-6.646135449409484863e-02,-6.646135449409484863e-02,1.126163154840469360e-01,1.126163154840469360e-01,2.194593697786331177e-01,2.194593697786331177e-01,2.194593697786331177e-01,2.829051613807678223e-01,2.829051613807678223e-01,2.829051613807678223e-01,3.128431141376495361e-01,3.128431141376495361e-01,3.128431141376495361e-01,3.229373693466186523e-01,3.031042814254760742e-01,3.031042814254760742e-01,3.031042814254760742e-01,3.031042814254760742e-01,3.197343349456787109e-01,3.197343349456787109e-01,3.197343349456787109e-01,3.197343349456787109e-01,3.161521553993225098e-01,3.161521553993225098e-01,3.161521553993225098e-01,3.161521553993225098e-01,3.067262470722198486e-01,3.067262470722198486e-01,3.067262470722198486e-01,2.951893508434295654e-01,2.969363331794738770e-01,2.969363331794738770e-01,2.969363331794738770e-01,2.993069589138031006e-01
-1.481727808713912964e-01,-1.636244505643844604e-01,-1.561894267797470093e-01,-1.561894267797470093e-01,-1.561894267797470093e-01,-1.698808223009109497e-01,-1.698808223009109497e-01,-1.698808223009109497e-01,-1.698808223009109497e-01,-1.800476014614105225e-01,-1.800476014614105225e-01,-1.800476014614105225e-01,-1.948154270648956299e-01,-1.948154270648956299e-01,-1.948154270648956299e-01,-1.920967102050781250e-01,-1.920967102050781250e-01,-1.866257190704345703e-01,-1.866257190704345703e-01,-1.973132640123367310e-01,-1.973132640123367310e-01,-1.894811391830444336e-01,-1.894811391830444336e-01,-1.894811391830444336e-01,-1.812400519847869873e-01,-1.812400519847869873e-01,-1.812400519847869873e-01,-1.812400519847869873e-01,-1.735467463731765747e-01,-1.735467463731765747e-01,-1.656249165534973145e-01,-1.656249165534973145e-01,-1.656249165534973145e-01,-1.585464179515838623e-01,-1.585464179515838623e-01,-1.500543355941772461e-01,-1.604106724262237549e-01,-1.604106724262237549e-01,-1.604106724262237549e-01,-1.491452157497406006e-01,-1.491452157497406006e-01,-1.491452157497406006e-01,-1.404819488525390625e-01,-1.404819488525390625e-01,-1.404819488525390625e-01,-1.334796249866485596e-01,-1.334796249866485596e-01,-1.417889446020126343e-01,-1.417889446020126343e-01,-1.331601887941360474e-01,-1.331601887941360474e-01,-1.331601887941360474e-01,-1.278828680515289307e-01,-1.278828680515289307e-01,-1.278828680515289307e-01,-1.403337866067886353e-01,-1.403337866067886353e-01,-1.360223442316055298e-01,-1.360223442316055298e-01,-1.360223442316055298e-01,-1.468275487422943115e-01,-1.468275487422943115e-01,-1.468275487422943115e-01,-1.577915847301483154e-01,-1.640991568565368652e-01,-1.640991568565368652e-01,-1.640991568565368652e-01,-1.640991568565368652e-01,-1.593163907527923584e-01,-1.593163907527923584e-01,-1.593163907527923584e-01,-1.593163907527923584e-01,-1.312485784292221069e-01,-1.312485784292221069e-01,-1.312485784292221069e-01,-1.382958590984344482e-01,1.133070210926234722e-03,1.133070210926234722e-03,8.482433855533599854e-02,8.482433855533599854e-02,-1.278848201036453247e-01,-1.278848201036453247e-01,-4.207117483019828796e-02,-4.207117483019828796e-02,1.579297780990600586e-01,1.579297780990600586e-01,2.694460749626159668e-01,2.694460749626159668e-01,2.694460749626159668e-01,3.361662328243255615e-01,3.361662328243255615e-01,3.361662328243255615e-01,3.678022921085357666e-01,3.678022921085357666e-01,3.678022921085357666e-01,3.760261237621307373e-01,3.594149947166442871e-01,3.594149947166442871e-01,3.594149947166442871e-01,3.594149947166442871e-01,3.649592995643615723e-01,3.649592995643615723e-01,3.649592995643615723e-01,3.649592995643615723e-01,3.416813611984252930e-01,3.416813611984252930e-01,3.416813611984252930e-01,3.416813611984252930e-01,3.264480829238891602e-01,3.264480829238891602e-01,3.264480829238891602e-01,3.079375028610229492e-01,3.149359822273254395e-01,3.149359822273254395e-01,3.149359822273254395e-01,3.229230642318725586e-01
-1.299006789922714233e-01,-1.420033723115921021e-01,-1.386575251817703247e-01,-1.386575251817703247e-01,-1.386575251817703247e-01,-1.501945853233337402e-01,-1.501945853233337402e-01,-1.501945853233337402e-01,-1.501945853233337402e-01,-1.570685952901840210e-01,-1.570685952901840210e-01,-1.570685952901840210e-01,-1.689250022172927856e-01,-1.689250022172927856e-01,-1.689250022172927856e-01,-1.662675589323043823e-01,-1.662675589323043823e-01,-1.596609354019165039e-01,-1.596609354019165039e-01,-1.708047688007354736e-01,-1.708047688007354736e-01,-1.620285511016845703e-01,-1.620285511016845703e-01,-1.620285511016845703e-01,-1.528916954994201660e-01,-1.528916954994201660e-01,-1.528916954994201660e-01,-1.528916954994201660e-01,-1.442290395498275757e-01,-1.442290395498275757e-01,-1.358720809221267700e-01,-1.358720809221267700e-01,-1.358720809221267700e-01,-1.305242478847503662e-01,-1.305242478847503662e-01,-1.307381391525268555e-01,-1.397410184144973755e-01,-1.397410184144973755e-01,-1.397410184144973755e-01,-1.377521306276321411e-01,-1.377521306276321411e-01,-1.377521306276321411e-01,-1.374171227216720581e-01,-1.374171227216720581e-01,-1.374171227216720581e-01,-1.345772743225097656e-01,-1.345772743225097656e-01,-1.389630287885665894e-01,-1.389630287885665894e-01,-1.334431022405624390e-01,-1.334431022405624390e-01,-1.334431022405624390e-01,-1.294470727443695068e-01,-1.294470727443695068e-01,-1.294470727443695068e-01,-1.398023813962936401e-01,-1.398023813962936401e-01,-1.379046440124511719e-01,-1.379046440124511719e-01,-1.379046440124511719e-01,-1.494106352329254150e-01,-1.494106352329254150e-01,-1.494106352329254150e-01,-1.650614440441131592e-01,-1.725609898567199707e-01,-1.725609898567199707e-01,-1.725609898567199707e-01,-1.725609898567199707e-01,-1.740255504846572876e-01,-1.740255504846572876e-01,-1.740255504846572876e-01,-1.740255504846572876e-01,-1.461058109998703003e-01,-1.461058109998703003e-01,-1.461058109998703003e-01,-1.524149030447006226e-01,-1.147159375250339508e-02,-1.147159375250339508e-02,7.002525031566619873e-02,7.002525031566619873e-02,-1.453804075717926025e-01,-1.453804075717926025e-01,-6.609074026346206665e-02,-6.609074026346206665e-02,1.371935755014419556e-01,1.371935755014419556e-01,2.518175244331359863e-01,2.518175244331359863e-01,2.518175244331359863e-01,3.219968378543853760e-01,3.219968378543853760e-01,3.219968378543853760e-01,3.585352003574371338e-01,3.585352003574371338e-01,3.585352003574371338e-01,3.727803826332092285e-01,3.495243191719055176e-01,3.495243191719055176e-01,3.495243191719055176e-01,3.495243191719055176e-01,3.623540401458740234e-01,3.623540401458740234e-01,3.623540401458740234e-01,3.623540401458740234e-01,3.474122583866119385e-01,3.474122583866119385e-01,3.474122583866119385e-01,3.474122583866119385e-01,3.413902521133422852e-01,3.413902521133422852e-01,3.413902521133422852e-01,3.317711651325225830e-01,3.346803486347198486e-01,3.346803486347198486e-01,3.346803486347198486e-01,3.398728668689727783e-01
-1.189242154359817505e-01,-1.251360476016998291e-01,-1.213018521666526794e-01,-1.213018521666526794e-01,-1.213018521666526794e-01,-1.291731446981430054e-01,-1.291731446981430054e-01,-1.291731446981430054e-01,-1.291731446981430054e-01,-1.358591765165328979e-01,-1.358591765165328979e-01,-1.358591765165328979e-01,-1.484374105930328369e-01,-1.484374105930328369e-01,-1.484374105930328369e-01,-1.463528573513031006e-01,-1.463528573513031006e-01,-1.410434693098068237e-01,-1.410434693098068237e-01,-1.526496410369873047e-01,-1.526496410369873047e-01,-1.449282020330429077e-01,-1.449282020330429077e-01,-1.449282020330429077e-01,-1.387621909379959106e-01,-1.387621909379959106e-01,-1.387621909379959106e-01,-1.387621909379959106e-01,-1.341687440872192383e-01,-1.341687440872192383e-01,-1.298170685768127441e-01,-1.298170685768127441e-01,-1.298170685768127441e-01,-1.265266090631484985e-01,-1.265266090631484985e-01,-1.250311583280563354e-01,-1.307345479726791382e-01,-1.307345479726791382e-01,-1.307345479726791382e-01,-1.283179074525833130e-01,-1.283179074525833130e-01,-1.283179074525833130e-01,-1.289250403642654419e-01,-1.289250403642654419e-01,-1.289250403642654419e-01,-1.312586367130279541e-01,-1.312586367130279541e-01,-1.326777487993240356e-01,-1.326777487993240356e-01,-1.325902193784713745e-01,-1.325902193784713745e-01,-1.325902193784713745e-01,-1.330055594444274902e-01,-1.330055594444274902e-01,-1.330055594444274902e-01,-1.365919262170791626e-01,-1.365919262170791626e-01,-1.380252987146377563e-01,-1.380252987146377563e-01,-1.380252987146377563e-01,-1.416403055191040039e-01,-1.416403055191040039e-01,-1.416403055191040039e-01,-1.514018177986145020e-01,-1.606613695621490479e-01,-1.606613695621490479e-01,-1.606613695621490479e-01,-1.606613695621490479e-01,-1.610852479934692383e-01,-1.610852479934692383e-01,-1.610852479934692383e-01,-1.610852479934692383e-01,-1.426326483488082886e-01,-1.426326483488082886e-01,-1.426326483488082886e-01,-1.445421576499938965e-01,-2.601666003465652466e-02,-2.601666003465652466e-02,4.563746973872184753e-02,4.563746973872184753e-02,-1.280588656663894653e-01,-1.280588656663894653e-01,-4.757374897599220276e-02,-4.757374897599220276e-02,1.149276793003082275e-01,1.149276793003082275e-01,2.368705570697784424e-01,2.368705570697784424e-01,2.368705570697784424e-01,3.088212609291076660e-01,3.088212609291076660e-01,3.088212609291076660e-01,3.446317613124847412e-01,3.446317613124847412e-01,3.446317613124847412e-01,3.578134179115295410e-01,3.356509804725646973e-01,3.356509804725646973e-01,3.356509804725646973e-01,3.356509804725646973e-01,3.547870516777038574e-01,3.547870516777038574e-01,3.547870516777038574e-01,3.547870516777038574e-01,3.505851924419403076e-01,3.505851924419403076e-01,3.505851924419403076e-01,3.505851924419403076e-01,3.511956036090850830e-01,3.511956036090850830e-01,3.511956036090850830e-01,3.495330214500427246e-01,3.522274196147918701e-01,3.522274196147918701e-01,3.522274196147918701e-01,3.556598126888275146e-01
-1.002149879932403564e-01,-1.046727150678634644e-01,-1.075248569250106812e-01,-1.075248569250106812e-01,-1.075248569250106812e-01,-1.078612059354782104e-01,-1.078612059354782104e-01,-1.078612059354782104e-01,-1.078612059354782104e-01,-1.098457798361778259e-01,-1.098457798361778259e-01,-1.098457798361778259e-01,-1.168572902679443359e-01,-1.168572902679443359e-01,-1.168572902679443359e-01,-1.180655062198638916e-01,-1.180655062198638916e-01,-1.179064139723777771e-01,-1.179064139723777771e-01,-1.251098960638046265e-01,-1.251098960638046265e-01,-1.232753023505210876e-01,-1.232753023505210876e-01,-1.232753023505210876e-01,-1.221966445446014404e-01,-1.221966445446014404e-01,-1.221966445446014404e-01,-1.221966445446014404e-01,-1.225084885954856873e-01,-1.225084885954856873e-01,-1.240611970424652100e-01,-1.240611970424652100e-01,-1.240611970424652100e-01,-1.257767081260681152e-01,-1.257767081260681152e-01,-1.259014606475830078e-01,-1.251579523086547852e-01,-1.251579523086547852e-01,-1.251579523086547852e-01,-1.236099153757095337e-01,-1.236099153757095337e-01,-1.236099153757095337e-01,-1.224745213985443115e-01,-1.224745213985443115e-01,-1.224745213985443115e-01,-1.238665506243705750e-01,-1.238665506243705750e-01,-1.227798387408256531e-01,-1.227798387408256531e-01,-1.235961094498634338e-01,-1.235961094498634338e-01,-1.235961094498634338e-01,-1.259272545576095581e-01,-1.259272545576095581e-01,-1.259272545576095581e-01,-1.246968135237693787e-01,-1.246968135237693787e-01,-1.326268166303634644e-01,-1.326268166303634644e-01,-1.326268166303634644e-01,-1.349406689405441284e-01,-1.349406689405441284e-01,-1.349406689405441284e-01,-1.444366425275802612e-01,-1.532876193523406982e-01,-1.532876193523406982e-01,-1.532876193523406982e-01,-1.532876193523406982e-01,-1.547439396381378174e-01,-1.547439396381378174e-01,-1.547439396381378174e-01,-1.547439396381378174e-01,-1.475453227758407593e-01,-1.475453227758407593e-01,-1.475453227758407593e-01,-1.503083109855651855e-01,-6.272518634796142578e-02,-6.272518634796142578e-02,6.898790597915649414e-03,6.898790597915649414e-03,-1.132852658629417419e-01,-1.132852658629417419e-01,-4.075203090906143188e-02,-4.075203090906143188e-02,7.505019009113311768e-02,7.505019009113311768e-02,2.005766779184341431e-01,2.005766779184341431e-01,2.005766779184341431e-01,2.771700024604797363e-01,2.771700024604797363e-01,2.771700024604797363e-01,3.086300194263458252e-01,3.086300194263458252e-01,3.086300194263458252e-01,3.265201747417449951e-01,3.050518333911895752e-01,3.050518333911895752e-01,3.050518333911895752e-01,3.050518333911895752e-01,3.323423564434051514e-01,3.323423564434051514e-01,3.323423564434051514e-01,3.323423564434051514e-01,3.401666283607482910e-01,3.401666283607482910e-01,3.401666283607482910e-01,3.401666283607482910e-01,3.437354862689971924e-01,3.437354862689971924e-01,3.437354862689971924e-01,3.451846241950988770e-01,3.460667133331298828e-01,3.460667133331298828e-01,3.460667133331298828e-01,3.478246331214904785e-01
-9.299405664205551147e-02,-9.746171534061431885e-02,-9.745135158300399780e-02,-9.745135158300399780e-02,-9.745135158300399780e-02,-1.029603034257888794e-01,-1.029603034257888794e-01,-1.029603034257888794e-01,-1.029603034257888794e-01,-1.077712178230285645e-01,-1.077712178230285645e-01,-1.077712178230285645e-01,-1.130028963088989258e-01,-1.130028963088989258e-01,-1.130028963088989258e-01,-1.133393347263336182e-01,-1.133393347263336182e-01,-1.130456477403640747e-01,-1.130456477403640747e-01,-1.186849176883697510e-01,-1.186849176883697510e-01,-1.169033050537109375e-01,-1.169033050537109375e-01,-1.169033050537109375e-01,-1.161935850977897644e-01,-1.161935850977897644e-01,-1.161935850977897644e-01,-1.161935850977897644e-01,-1.175859719514846802e-01,-1.175859719514846802e-01,-1.211311370134353638e-01,-1.211311370134353638e-01,-1.211311370134353638e-01,-1.256546825170516968e-01,-1.256546825170516968e-01,-1.293586194515228271e-01,-1.274138092994689941e-01,-1.274138092994689941e-01,-1.274138092994689941e-01,-1.298487782478332520e-01,-1.298487782478332520e-01,-1.298487782478332520e-01,-1.296930611133575439e-01,-1.296930611133575439e-01,-1.296930611133575439e-01,-1.287076324224472046e-01,-1.287076324224472046e-01,-1.298743635416030884e-01,-1.298743635416030884e-01,-1.286130994558334351e-01,-1.286130994558334351e-01,-1.286130994558334351e-01,-1.274914145469665527e-01,-1.274914145469665527e-01,-1.274914145469665527e-01,-1.303970664739608765e-01,-1.303970664739608765e-01,-1.330910623073577881e-01,-1.330910623073577881e-01,-1.330910623073577881e-01,-1.374345570802688599e-01,-1.374345570802688599e-01,-1.374345570802688599e-01,-1.465544104576110840e-01,-1.507370620965957642e-01,-1.507370620965957642e-01,-1.507370620965957642e-01,-1.507370620965957642e-01,-1.506784558296203613e-01,-1.506784558296203613e-01,-1.506784558296203613e-01,-1.506784558296203613e-01,-1.456059366464614868e-01,-1.456059366464614868e-01,-1.456059366464614868e-01,-1.476083993911743164e-01,-6.797093152999877930e-02,-6.797093152999877930e-02,-6.884259637445211411e-03,-6.884259637445211411e-03,-1.111974418163299561e-01,-1.111974418163299561e-01,-5.913951992988586426e-02,-5.913951992988586426e-02,4.950109869241714478e-02,4.950109869241714478e-02,1.638680696487426758e-01,1.638680696487426758e-01,1.638680696487426758e-01,2.340535074472427368e-01,2.340535074472427368e-01,2.340535074472427368e-01,2.696043848991394043e-01,2.696043848991394043e-01,2.696043848991394043e-01,3.021036088466644287e-01,2.786107659339904785e-01,2.786107659339904785e-01,2.786107659339904785e-01,2.786107659339904785e-01,3.318195343017578125e-01,3.318195343017578125e-01,3.318195343017578125e-01,3.318195343017578125e-01,3.661454319953918457e-01,3.661454319953918457e-01,3.661454319953918457e-01,3.661454319953918457e-01,3.715209066867828369e-01,3.715209066867828369e-01,3.715209066867828369e-01,3.718370199203491211e-01,3.716439902782440186e-01,3.716439902782440186e-01,3.716439902782440186e-01,3.729521036148071289e-01
-6.011854484677314758e-02,-6.945502758026123047e-02,-6.359533220529556274e-02,-6.359533220529556274e-02,-6.359533220529556274e-02,-7.333703339099884033e-02,-7.333703339099884033e-02,-7.333703339099884033e-02,-7.333703339099884033e-02,-7.905161380767822266e-02,-7.905161380767822266e-02,-7.905161380767822266e-02,-8.666267991065979004e-02,-8.666267991065979004e-02,-8.666267991065979004e-02,-8.388258516788482666e-02,-8.388258516788482666e-02,-8.013579249382019043e-02,-8.013579249382019043e-02,-8.854547142982482910e-02,-8.854547142982482910e-02,-8.330580592155456543e-02,-8.330580592155456543e-02,-8.330580592155456543e-02,-7.868807762861251831e-02,-7.868807762861251831e-02,-7.868807762861251831e-02,-7.868807762861251831e-02,-7.491610199213027954e-02,-7.491610199213027954e-02,-7.271941006183624268e-02,-7.271941006183624268e-02,-7.271941006183624268e-02,-7.263112813234329224e-02,-7.263112813234329224e-02,-7.470602542161941528e-02,-7.709676027297973633e-02,-7.709676027297973633e-02,-7.709676027297973633e-02,-7.844498753547668457e-02,-7.844498753547668457e-02,-7.844498753547668457e-02,-8.014394342899322510e-02,-8.014394342899322510e-02,-8.014394342899322510e-02,-8.159531652927398682e-02,-8.159531652927398682e-02,-8.403372764587402344e-02,-8.403372764587402344e-02,-8.456643670797348022e-02,-8.456643670797348022e-02,-8.456643670797348022e-02,-8.361943066120147705e-02,-8.361943066120147705e-02,-8.361943066120147705e-02,-8.764538168907165527e-02,-8.764538168907165527e-02,-8.634307235479354858e-02,-8.634307235479354858e-02,-8.634307235479354858e-02,-9.121381491422653198e-02,-9.121381491422653198e-02,-9.121381491422653198e-02,-1.035675108432769775e-01,-1.138615682721138000e-01,-1.138615682721138000e-01,-1.138615682721138000e-01,-1.138615682721138000e-01,-1.185631677508354187e-01,-1.185631677508354187e-01,-1.185631677508354187e-01,-1.185631677508354187e-01,-1.058962866663932800e-01,-1.058962866663932800e-01,-1.058962866663932800e-01,-1.071094498038291931e-01,1.819380675442516804e-03,1.819380675442516804e-03,5.561032146215438843e-02,5.561032146215438843e-02,-8.260738104581832886e-02,-8.260738104581832886e-02,-2.035729400813579559e-02,-2.035729400813579559e-02,1.151505410671234131e-01,1.151505410671234131e-01,2.241534143686294556e-01,2.241534143686294556e-01,2.241534143686294556e-01,2.941631674766540527e-01,2.941631674766540527e-01,2.941631674766540527e-01,3.282142281532287598e-01,3.282142281532287598e-01,3.282142281532287598e-01,3.489711284637451172e-01,3.246929645538330078e-01,3.246929645538330078e-01,3.246929645538330078e-01,3.246929645538330078e-01,3.593598902225494385e-01,3.593598902225494385e-01,3.593598902225494385e-01,3.593598902225494385e-01,3.761221170425415039e-01,3.761221170425415039e-01,3.761221170425415039e-01,3.761221170425415039e-01,3.758648335933685303e-01,3.758648335933685303e-01,3.758648335933685303e-01,3.732283711433410645e-01,3.728457391262054443e-01,3.728457391262054443e-01,3.728457391262054443e-01,3.732691109180450439e-01
-2.854049578309059143e-02,-3.616993501782417297e-02,-3.026567585766315460e-02,-3.026567585766315460e-02,-3.026567585766315460e-02,-3.880265355110168457e-02,-3.880265355110168457e-02,-3.880265355110168457e-02,-3.880265355110168457e-02,-4.393950477242469788e-02,-4.393950477242469788e-02,-4.393950477242469788e-02,-5.585902929306030273e-02,-5.585902929306030273e-02,-5.585902929306030273e-02,-5.548239499330520630e-02,-5.548239499330520630e-02,-5.005218461155891418e-02,-5.005218461155891418e-02,-6.053812429308891296e-02,-6.053812429308891296e-02,-5.314489826560020447e-02,-5.314489826560020447e-02,-5.314489826560020447e-02,-4.684516787528991699e-02,-4.684516787528991699e-02,-4.684516787528991699e-02,-4.684516787528991699e-02,-4.151350259780883789e-02,-4.151350259780883789e-02,-3.622588887810707092e-02,-3.622588887810707092e-02,-3.622588887810707092e-02,-3.159673511981964111e-02,-3.159673511981964111e-02,-2.877138368785381317e-02,-3.996416553854942322e-02,-3.996416553854942322e-02,-3.996416553854942322e-02,-3.719172999262809753e-02,-3.719172999262809753e-02,-3.719172999262809753e-02,-3.641863912343978882e-02,-3.641863912343978882e-02,-3.641863912343978882e-02,-3.768892213702201843e-02,-3.768892213702201843e-02,-4.618347808718681335e-02,-4.618347808718681335e-02,-4.767660051584243774e-02,-4.767660051584243774e-02,-4.767660051584243774e-02,-5.200796574354171753e-02,-5.200796574354171753e-02,-5.200796574354171753e-02,-5.676488950848579407e-02,-5.676488950848579407e-02,-6.117241457104682922e-02,-6.117241457104682922e-02,-6.117241457104682922e-02,-6.339676678180694580e-02,-6.339676678180694580e-02,-6.339676678180694580e-02,-7.600243389606475830e-02,-9.605108201503753662e-02,-9.605108201503753662e-02,-9.605108201503753662e-02,-9.605108201503753662e-02,-1.015445515513420105e-01,-1.015445515513420105e-01,-1.015445515513420105e-01,-1.015445515513420105e-01,-8.296691626310348511e-02,-8.296691626310348511e-02,-8.296691626310348511e-02,-8.228375017642974854e-02,4.994295164942741394e-02,4.994295164942741394e-02,1.197539642453193665e-01,1.197539642453193665e-01,-6.931988894939422607e-02,-6.931988894939422607e-02,1.250734832137823105e-02,1.250734832137823105e-02,1.897955089807510376e-01,1.897955089807510376e-01,3.184996843338012695e-01,3.184996843338012695e-01,3.184996843338012695e-01,3.970294594764709473e-01,3.970294594764709473e-01,3.970294594764709473e-01,4.361602962017059326e-01,4.361602962017059326e-01,4.361602962017059326e-01,4.513947367668151855e-01,4.231957197189331055e-01,4.231957197189331055e-01,4.231957197189331055e-01,4.231957197189331055e-01,4.314901530742645264e-01,4.314901530742645264e-01,4.314901530742645264e-01,4.314901530742645264e-01,4.205068945884704590e-01,4.205068945884704590e-01,4.205068945884704590e-01,4.205068945884704590e-01,4.233570098876953125e-01,4.233570098876953125e-01,4.233570098876953125e-01,4.198745489120483398e-01,4.216346144676208496e-01,4.216346144676208496e-01,4.216346144676208496e-01,4.235531985759735107e-01
-6.031405180692672729e-02,-7.092938572168350220e-02,-6.020789965987205505e-02,-6.020789965987205505e-02,-6.020789965987205505e-02,-7.277757674455642700e-02,-7.277757674455642700e-02,-7.277757674455642700e-02,-7.277757674455642700e-02,-7.624038308858871460e-02,-7.624038308858871460e-02,-7.624038308858871460e-02,-8.587152510881423950e-02,-8.587152510881423950e-02,-8.587152510881423950e-02,-8.128105849027633667e-02,-8.128105849027633667e-02,-7.476134598255157471e-02,-7.476134598255157471e-02,-8.257129043340682983e-02,-8.257129043340682983e-02,-7.322259992361068726e-02,-7.322259992361068726e-02,-7.322259992361068726e-02,-6.300303339958190918e-02,-6.300303339958190918e-02,-6.300303339958190918e-02,-6.300303339958190918e-02,-5.282690376043319702e-02,-5.282690376043319702e-02,-4.224133864045143127e-02,-4.224133864045143127e-02,-4.224133864045143127e-02,-3.213820606470108032e-02,-3.213820606470108032e-02,-2.360616251826286316e-02,-4.034033790230751038e-02,-4.034033790230751038e-02,-4.034033790230751038e-02,-3.112727031111717224e-02,-3.112727031111717224e-02,-3.112727031111717224e-02,-2.440117485821247101e-02,-2.440117485821247101e-02,-2.440117485821247101e-02,-2.114759758114814758e-02,-2.114759758114814758e-02,-3.639044240117073059e-02,-3.639044240117073059e-02,-3.266221657395362854e-02,-3.266221657395362854e-02,-3.266221657395362854e-02,-3.452923521399497986e-02,-3.452923521399497986e-02,-3.452923521399497986e-02,-4.863579943776130676e-02,-4.863579943776130676e-02,-4.928779602050781250e-02,-4.928779602050781250e-02,-4.928779602050781250e-02,-6.138609349727630615e-02,-6.138609349727630615e-02,-6.138609349727630615e-02,-8.141645789146423340e-02,-9.407862275838851929e-02,-9.407862275838851929e-02,-9.407862275838851929e-02,-9.407862275838851929e-02,-1.012745797634124756e-01,-1.012745797634124756e-01,-1.012745797634124756e-01,-1.012745797634124756e-01,-8.687809854745864868e-02,-8.687809854745864868e-02,-8.687809854745864868e-02,-8.570640534162521362e-02,3.767907246947288513e-02,3.767907246947288513e-02,9.852299094200134277e-02,9.852299094200134277e-02,-6.222198531031608582e-02,-6.222198531031608582e-02,1.832867041230201721e-02,1.832867041230201721e-02,1.663811504840850830e-01,1.663811504840850830e-01,2.876097857952117920e-01,2.876097857952117920e-01,2.876097857952117920e-01,3.616291880607604980e-01,3.616291880607604980e-01,3.616291880607604980e-01,3.997463285923004150e-01,3.997463285923004150e-01,3.997463285923004150e-01,4.163782298564910889e-01,3.834801018238067627e-01,3.834801018238067627e-01,3.834801018238067627e-01,3.834801018238067627e-01,4.029357433319091797e-01,4.029357433319091797e-01,4.029357433319091797e-01,4.029357433319091797e-01,3.961132466793060303e-01,3.961132466793060303e-01,3.961132466793060303e-01,3.961132466793060303e-01,3.960234224796295166e-01,3.960234224796295166e-01,3.960234224796295166e-01,3.942789137363433838e-01,3.940385580062866211e-01,3.940385580062866211e-01,3.940385580062866211e-01,3.938395380973815918e-01
-7.734757661819458008e-02,-8.787710964679718018e-02,-7.840178906917572021e-02,-7.840178906917572021e-02,-7.840178906917572021e-02,-8.726151287555694580e-02,-8.726151287555694580e-02,-8.726151287555694580e-02,-8.726151287555694580e-02,-8.699181675910949707e-02,-8.699181675910949707e-02,-8.699181675910949707e-02,-9.140508621931076050e-02,-9.140508621931076050e-02,-9.140508621931076050e-02,-8.703432232141494751e-02,-8.703432232141494751e-02,-8.080635219812393188e-02,-8.080635219812393188e-02,-8.551864326000213623e-02,-8.551864326000213623e-02,-7.585266977548599243e-02,-7.585266977548599243e-02,-7.585266977548599243e-02,-6.454826891422271729e-02,-6.454826891422271729e-02,-6.454826891422271729e-02,-6.454826891422271729e-02,-5.245932191610336304e-02,-5.245932191610336304e-02,-3.973064199090003967e-02,-3.973064199090003967e-02,-3.973064199090003967e-02,-2.771945483982563019e-02,-2.771945483982563019e-02,-1.563548855483531952e-02,-3.783616423606872559e-02,-3.783616423606872559e-02,-3.783616423606872559e-02,-2.528422884643077850e-02,-2.528422884643077850e-02,-2.528422884643077850e-02,-1.553881820291280746e-02,-1.553881820291280746e-02,-1.553881820291280746e-02,-8.454994298517704010e-03,-8.454994298517704010e-03,-2.705973573029041290e-02,-2.705973573029041290e-02,-1.950539834797382355e-02,-1.950539834797382355e-02,-1.950539834797382355e-02,-1.756574586033821106e-02,-1.756574586033821106e-02,-1.756574586033821106e-02,-3.375449404120445251e-02,-3.375449404120445251e-02,-3.088585287332534790e-02,-3.088585287332534790e-02,-3.088585287332534790e-02,-4.349067434668540955e-02,-4.349067434668540955e-02,-4.349067434668540955e-02,-5.851407721638679504e-02,-6.482765078544616699e-02,-6.482765078544616699e-02,-6.482765078544616699e-02,-6.482765078544616699e-02,-7.090147584676742554e-02,-7.090147584676742554e-02,-7.090147584676742554e-02,-7.090147584676742554e-02,-5.630553886294364929e-02,-5.630553886294364929e-02,-5.630553886294364929e-02,-5.696577951312065125e-02,6.195442751049995422e-02,6.195442751049995422e-02,1.184304133057594299e-01,1.184304133057594299e-01,-3.940647467970848083e-02,-3.940647467970848083e-02,3.516619652509689331e-02,3.516619652509689331e-02,1.780342757701873779e-01,1.780342757701873779e-01,2.773151099681854248e-01,2.773151099681854248e-01,2.773151099681854248e-01,3.375709354877471924e-01,3.375709354877471924e-01,3.375709354877471924e-01,3.710049688816070557e-01,3.710049688816070557e-01,3.710049688816070557e-01,3.845458626747131348e-01,3.559697568416595459e-01,3.559697568416595459e-01,3.559697568416595459e-01,3.559697568416595459e-01,3.745494484901428223e-01,3.745494484901428223e-01,3.745494484901428223e-01,3.745494484901428223e-01,3.666376173496246338e-01,3.666376173496246338e-01,3.666376173496246338e-01,3.666376173496246338e-01,3.640959262847900391e-01,3.640959262847900391e-01,3.640959262847900391e-01,3.618813157081604004e-01,3.609127998352050781e-01,3.609127998352050781e-01,3.609127998352050781e-01,3.595750331878662109e-01
-1.768550276756286621e-01,-1.858387142419815063e-01,-1.775691956281661987e-01,-1.775691956281661987e-01,-1.775691956281661987e-01,-1.857599467039108276e-01,-1.857599467039108276e-01,-1.857599467039108276e-01,-1.857599467039108276e-01,-1.849774271249771118e-01,-1.849774271249771118e-01,-1.849774271249771118e-01,-1.862846165895462036e-01,-1.862846165895462036e-01,-1.862846165895462036e-01,-1.794342249631881714e-01,-1.794342249631881714e-01,-1.719226539134979248e-01,-1.719226539134979248e-01,-1.736362725496292114e-01,-1.736362725496292114e-01,-1.640956550836563110e-01,-1.640956550836563110e-01,-1.640956550836563110e-01,-1.532943993806838989e-01,-1.532943993806838989e-01,-1.532943993806838989e-01,-1.532943993806838989e-01,-1.434552818536758423e-01,-1.434552818536758423e-01,-1.330971866846084595e-01,-1.330971866846084595e-01,-1.330971866846084595e-01,-1.238755434751510620e-01,-1.238755434751510620e-01,-1.146167367696762085e-01,-1.266185492277145386e-01,-1.266185492277145386e-01,-1.266185492277145386e-01,-1.154792308807373047e-01,-1.154792308807373047e-01,-1.154792308807373047e-01,-1.066971495747566223e-01,-1.066971495747566223e-01,-1.066971495747566223e-01,-9.965157508850097656e-02,-9.965157508850097656e-02,-1.106055527925491333e-01,-1.106055527925491333e-01,-1.036805585026741028e-01,-1.036805585026741028e-01,-1.036805585026741028e-01,-1.007863506674766541e-01,-1.007863506674766541e-01,-1.007863506674766541e-01,-1.137708127498626709e-01,-1.137708127498626709e-01,-1.117632165551185608e-01,-1.117632165551185608e-01,-1.117632165551185608e-01,-1.225810870528221130e-01,-1.225810870528221130e-01,-1.225810870528221130e-01,-1.328871846199035645e-01,-1.324365139007568359e-01,-1.324365139007568359e-01,-1.324365139007568359e-01,-1.324365139007568359e-01,-1.324941068887710571e-01,-1.324941068887710571e-01,-1.324941068887710571e-01,-1.324941068887710571e-01,-1.248548775911331177e-01,-1.248548775911331177e-01,-1.248548775911331177e-01,-1.246016919612884521e-01,-3.185268864035606384e-02,-3.185268864035606384e-02,1.973648369312286377e-02,1.973648369312286377e-02,-1.040886268019676208e-01,-1.040886268019676208e-01,-3.906694054603576660e-02,-3.906694054603576660e-02,7.701519131660461426e-02,7.701519131660461426e-02,1.958591341972351074e-01,1.958591341972351074e-01,1.958591341972351074e-01,2.616068422794342041e-01,2.616068422794342041e-01,2.616068422794342041e-01,2.981739044189453125e-01,2.981739044189453125e-01,2.981739044189453125e-01,3.177010416984558105e-01,2.877457439899444580e-01,2.877457439899444580e-01,2.877457439899444580e-01,2.877457439899444580e-01,3.213351070880889893e-01,3.213351070880889893e-01,3.213351070880889893e-01,3.213351070880889893e-01,3.284850418567657471e-01,3.284850418567657471e-01,3.284850418567657471e-01,3.284850418567657471e-01,3.267780840396881104e-01,3.267780840396881104e-01,3.267780840396881104e-01,3.250609338283538818e-01,3.252797126770019531e-01,3.252797126770019531e-01,3.252797126770019531e-01,3.254305124282836914e-01
-2.289374172687530518e-01,-2.338418215513229370e-01,-2.285947948694229126e-01,-2.285947948694229126e-01,-2.285947948694229126e-01,-2.359678298234939575e-01,-2.359678298234939575e-01,-2.359678298234939575e-01,-2.359678298234939575e-01,-2.404582053422927856e-01,-2.404582053422927856e-01,-2.404582053422927856e-01,-2.475250661373138428e-01,-2.475250661373138428e-01,-2.475250661373138428e-01,-2.433118522167205811e-01,-2.433118522167205811e-01,-2.361089587211608887e-01,-2.361089587211608887e-01,-2.424604296684265137e-01,-2.424604296684265137e-01,-2.332874536514282227e-01,-2.332874536514282227e-01,-2.332874536514282227e-01,-2.223727852106094360e-01,-2.223727852106094360e-01,-2.223727852106094360e-01,-2.223727852106094360e-01,-2.125329077243804932e-01,-2.125329077243804932e-01,-2.026971429586410522e-01,-2.026971429586410522e-01,-2.026971429586410522e-01,-1.942205280065536499e-01,-1.942205280065536499e-01,-1.860697418451309204e-01,-1.996628344058990479e-01,-1.996628344058990479e-01,-1.996628344058990479e-01,-1.887594461441040039e-01,-1.887594461441040039e-01,-1.887594461441040039e-01,-1.800891906023025513e-01,-1.800891906023025513e-01,-1.800891906023025513e-01,-1.734984815120697021e-01,-1.734984815120697021e-01,-1.872729659080505371e-01,-1.872729659080505371e-01,-1.799754053354263306e-01,-1.799754053354263306e-01,-1.799754053354263306e-01,-1.768654435873031616e-01,-1.768654435873031616e-01,-1.768654435873031616e-01,-1.907854974269866943e-01,-1.907854974269866943e-01,-1.868493556976318359e-01,-1.868493556976318359e-01,-1.868493556976318359e-01,-1.975965946912765503e-01,-1.975965946912765503e-01,-1.975965946912765503e-01,-2.069162130355834961e-01,-2.075308114290237427e-01,-2.075308114290237427e-01,-2.075308114290237427e-01,-2.075308114290237427e-01,-2.066382318735122681e-01,-2.066382318735122681e-01,-2.066382318735122681e-01,-2.066382318735122681e-01,-1.934570968151092529e-01,-1.934570968151092529e-01,-1.934570968151092529e-01,-1.981372684240341187e-01,-8.431686460971832275e-02,-8.431686460971832275e-02,-1.946642436087131500e-02,-1.946642436087131500e-02,-1.810519546270370483e-01,-1.810519546270370483e-01,-1.094039008021354675e-01,-1.094039008021354675e-01,4.583973437547683716e-02,4.583973437547683716e-02,1.648330390453338623e-01,1.648330390453338623e-01,1.648330390453338623e-01,2.348460257053375244e-01,2.348460257053375244e-01,2.348460257053375244e-01,2.705521881580352783e-01,2.705521881580352783e-01,2.705521881580352783e-01,2.851976454257965088e-01,2.619426250457763672e-01,2.619426250457763672e-01,2.619426250457763672e-01,2.619426250457763672e-01,2.915056943893432617e-01,2.915056943893432617e-01,2.915056943893432617e-01,2.915056943893432617e-01,3.041400611400604248e-01,3.041400611400604248e-01,3.041400611400604248e-01,3.041400611400604248e-01,2.999301254749298096e-01,2.999301254749298096e-01,2.999301254749298096e-01,2.952208817005157471e-01,2.925404310226440430e-01,2.925404310226440430e-01,2.925404310226440430e-01,2.906316220760345459e-01
-2.178236991167068481e-01,-2.220803350210189819e-01,-2.186437547206878662e-01,-2.186437547206878662e-01,-2.186437547206878662e-01,-2.237042635679244995e-01,-2.237042635679244995e-01,-2.237042635679244995e-01,-2.237042635679244995e-01,-2.249610722064971924e-01,-2.249610722064971924e-01,-2.249610722064971924e-01,-2.264811545610427856e-01,-2.264811545610427856e-01,-2.264811545610427856e-01,-2.243795543909072876e-01,-2.243795543909072876e-01,-2.216040343046188354e-01,-2.216040343046188354e-01,-2.245918065309524536e-01,-2.245918065309524536e-01,-2.202997803688049316e-01,-2.202997803688049316e-01,-2.202997803688049316e-01,-2.152598351240158081e-01,-2.152598351240158081e-01,-2.152598351240158081e-01,-2.152598351240158081e-01,-2.097238004207611084e-01,-2.097238004207611084e-01,-2.042703181505203247e-01,-2.042703181505203247e-01,-2.042703181505203247e-01,-1.992647200822830200e-01,-1.992647200822830200e-01,-1.932376623153686523e-01,-2.017635107040405273e-01,-2.017635107040405273e-01,-2.017635107040405273e-01,-1.945820003747940063e-01,-1.945820003747940063e-01,-1.945820003747940063e-01,-1.891542077064514160e-01,-1.891542077064514160e-01,-1.891542077064514160e-01,-1.848530024290084839e-01,-1.848530024290084839e-01,-1.932273060083389282e-01,-1.932273060083389282e-01,-1.883435845375061035e-01,-1.883435845375061035e-01,-1.883435845375061035e-01,-1.877356320619583130e-01,-1.877356320619583130e-01,-1.877356320619583130e-01,-1.959718465805053711e-01,-1.959718465805053711e-01,-1.978351026773452759e-01,-1.978351026773452759e-01,-1.978351026773452759e-01,-2.034913599491119385e-01,-2.034913599491119385e-01,-2.034913599491119385e-01,-2.131316214799880981e-01,-2.237035930156707764e-01,-2.237035930156707764e-01,-2.237035930156707764e-01,-2.237035930156707764e-01,-2.213084548711776733e-01,-2.213084548711776733e-01,-2.213084548711776733e-01,-2.213084548711776733e-01,-2.024657577276229858e-01,-2.024657577276229858e-01,-2.024657577276229858e-01,-2.089081257581710815e-01,-8.135700970888137817e-02,-8.135700970888137817e-02,-8.186047896742820740e-03,-8.186047896742820740e-03,-1.900466829538345337e-01,-1.900466829538345337e-01,-1.114982217550277710e-01,-1.114982217550277710e-01,6.335148215293884277e-02,6.335148215293884277e-02,1.746805310249328613e-01,1.746805310249328613e-01,1.746805310249328613e-01,2.377251088619232178e-01,2.377251088619232178e-01,2.377251088619232178e-01,2.657338678836822510e-01,2.657338678836822510e-01,2.657338678836822510e-01,2.726917266845703125e-01,2.595599293708801270e-01,2.595599293708801270e-01,2.595599293708801270e-01,2.595599293708801270e-01,2.818265557289123535e-01,2.818265557289123535e-01,2.818265557289123535e-01,2.818265557289123535e-01,2.924485802650451660e-01,2.924485802650451660e-01,2.924485802650451660e-01,2.924485802650451660e-01,2.834377586841583252e-01,2.834377586841583252e-01,2.834377586841583252e-01,2.758262455463409424e-01,2.739031910896301270e-01,2.739031910896301270e-01,2.739031910896301270e-01,2.729555070400238037e-01
-2.134182900190353394e-01,-2.190873920917510986e-01,-2.121503651142120361e-01,-2.121503651142120361e-01,-2.121503651142120361e-01,-2.183444499969482422e-01,-2.183444499969482422e-01,-2.183444499969482422e-01,-2.183444499969482422e-01,-2.188770174980163574e-01,-2.188770174980163574e-01,-2.188770174980163574e-01,-2.222857624292373657e-01,-2.222857624292373657e-01,-2.222857624292373657e-01,-2.193497270345687866e-01,-2.193497270345687866e-01,-2.146759927272796631e-01,-2.146759927272796631e-01,-2.180292904376983643e-01,-2.180292904376983643e-01,-2.105416953563690186e-01,-2.105416953563690186e-01,-2.105416953563690186e-01,-2.019752711057662964e-01,-2.019752711057662964e-01,-2.019752711057662964e-01,-2.019752711057662964e-01,-1.936100572347640991e-01,-1.936100572347640991e-01,-1.846295446157455444e-01,-1.846295446157455444e-01,-1.846295446157455444e-01,-1.761149317026138306e-01,-1.761149317026138306e-01,-1.676129847764968872e-01,-1.776650547981262207e-01,-1.776650547981262207e-01,-1.776650547981262207e-01,-1.664689332246780396e-01,-1.664689332246780396e-01,-1.664689332246780396e-01,-1.572005748748779297e-01,-1.572005748748779297e-01,-1.572005748748779297e-01,-1.498618274927139282e-01,-1.498618274927139282e-01,-1.587356925010681152e-01,-1.587356925010681152e-01,-1.508219540119171143e-01,-1.508219540119171143e-01,-1.508219540119171143e-01,-1.466402709484100342e-01,-1.466402709484100342e-01,-1.466402709484100342e-01,-1.579032540321350098e-01,-1.579032540321350098e-01,-1.561353951692581177e-01,-1.561353951692581177e-01,-1.561353951692581177e-01,-1.653195470571517944e-01,-1.653195470571517944e-01,-1.653195470571517944e-01,-1.771440953016281128e-01,-1.845950484275817871e-01,-1.845950484275817871e-01,-1.845950484275817871e-01,-1.845950484275817871e-01,-1.861424148082733154e-01,-1.861424148082733154e-01,-1.861424148082733154e-01,-1.861424148082733154e-01,-1.606433838605880737e-01,-1.606433838605880737e-01,-1.606433838605880737e-01,-1.655400246381759644e-01,-2.924749627709388733e-02,-2.924749627709388733e-02,5.594188347458839417e-02,5.594188347458839417e-02,-1.523258835077285767e-01,-1.523258835077285767e-01,-7.028823345899581909e-02,-7.028823345899581909e-02,1.334486454725265503e-01,1.334486454725265503e-01,2.502386271953582764e-01,2.502386271953582764e-01,2.502386271953582764e-01,3.223153352737426758e-01,3.223153352737426758e-01,3.223153352737426758e-01,3.572241663932800293e-01,3.572241663932800293e-01,3.572241663932800293e-01,3.685128986835479736e-01,3.480634689331054688e-01,3.480634689331054688e-01,3.480634689331054688e-01,3.480634689331054688e-01,3.566308617591857910e-01,3.566308617591857910e-01,3.566308617591857910e-01,3.566308617591857910e-01,3.363289237022399902e-01,3.363289237022399902e-01,3.363289237022399902e-01,3.363289237022399902e-01,3.228006064891815186e-01,3.228006064891815186e-01,3.228006064891815186e-01,3.023461401462554932e-01,3.125124573707580566e-01,3.125124573707580566e-01,3.125124573707580566e-01,3.236396312713623047e-01
-1.981687396764755249e-01,-2.000885009765625000e-01,-2.015176713466644287e-01,-2.015176713466644287e-01,-2.015176713466644287e-01,-2.014006078243255615e-01,-2.014006078243255615e-01,-2.014006078243255615e-01,-2.014006078243255615e-01,-2.007028013467788696e-01,-2.007028013467788696e-01,-2.007028013467788696e-01,-2.003674358129501343e-01,-2.003674358129501343e-01,-2.003674358129501343e-01,-1.987725794315338135e-01,-1.987725794315338135e-01,-1.970703303813934326e-01,-1.970703303813934326e-01,-1.958294659852981567e-01,-1.958294659852981567e-01,-1.924067586660385132e-01,-1.924067586660385132e-01,-1.924067586660385132e-01,-1.889399886131286621e-01,-1.889399886131286621e-01,-1.889399886131286621e-01,-1.889399886131286621e-01,-1.857902258634567261e-01,-1.857902258634567261e-01,-1.826691180467605591e-01,-1.826691180467605591e-01,-1.826691180467605591e-01,-1.799438148736953735e-01,-1.799438148736953735e-01,-1.771181970834732056e-01,-1.780166029930114746e-01,-1.780166029930114746e-01,-1.780166029930114746e-01,-1.747955977916717529e-01,-1.747955977916717529e-01,-1.747955977916717529e-01,-1.713975518941879272e-01,-1.713975518941879272e-01,-1.713975518941879272e-01,-1.682230234146118164e-01,-1.682230234146118164e-01,-1.703794300556182861e-01,-1.703794300556182861e-01,-1.673980206251144409e-01,-1.673980206251144409e-01,-1.673980206251144409e-01,-1.654334515333175659e-01,-1.654334515333175659e-01,-1.654334515333175659e-01,-1.699285209178924561e-01,-1.699285209178924561e-01,-1.698269248008728027e-01,-1.698269248008728027e-01,-1.698269248008728027e-01,-1.737509220838546753e-01,-1.737509220838546753e-01,-1.737509220838546753e-01,-1.774923652410507202e-01,-1.778752356767654419e-01,-1.778752356767654419e-01,-1.778752356767654419e-01,-1.778752356767654419e-01,-1.741737723350524902e-01,-1.741737723350524902e-01,-1.741737723350524902e-01,-1.741737723350524902e-01,-1.632231175899505615e-01,-1.632231175899505615e-01,-1.632231175899505615e-01,-1.605612933635711670e-01,-7.946156710386276245e-02,-7.946156710386276245e-02,-1.045511290431022644e-02,-1.045511290431022644e-02,-1.302784830331802368e-01,-1.302784830331802368e-01,-6.343645602464675903e-02,-6.343645602464675903e-02,5.700997263193130493e-02,5.700997263193130493e-02,1.821957081556320190e-01,1.821957081556320190e-01,1.821957081556320190e-01,2.504214644432067871e-01,2.504214644432067871e-01,2.504214644432067871e-01,2.856359183788299561e-01,2.856359183788299561e-01,2.856359183788299561e-01,3.111003935337066650e-01,2.909391820430755615e-01,2.909391820430755615e-01,2.909391820430755615e-01,2.909391820430755615e-01,3.306711912155151367e-01,3.306711912155151367e-01,3.306711912155151367e-01,3.306711912155151367e-01,3.385015428066253662e-01,3.385015428066253662e-01,3.385015428066253662e-01,3.385015428066253662e-01,3.235041797161102295e-01,3.235041797161102295e-01,3.235041797161102295e-01,3.112517297267913818e-01,3.128237724304199219e-01,3.128237724304199219e-01,3.128237724304199219e-01,3.163300752639770508e-01
-1.516875773668289185e-01,-1.446471214294433594e-01,-1.522382944822311401e-01,-1.522382944822311401e-01,-1.522382944822311401e-01,-1.445540040731430054e-01,-1.445540040731430054e-01,-1.445540040731430054e-01,-1.445540040731430054e-01,-1.446604728698730469e-01,-1.446604728698730469e-01,-1.446604728698730469e-01,-1.467151343822479248e-01,-1.467151343822479248e-01,-1.467151343822479248e-01,-1.487477272748947144e-01,-1.487477272748947144e-01,-1.505786180496215820e-01,-1.505786180496215820e-01,-1.508915573358535767e-01,-1.508915573358535767e-01,-1.499985754489898682e-01,-1.499985754489898682e-01,-1.499985754489898682e-01,-1.491806656122207642e-01,-1.491806656122207642e-01,-1.491806656122207642e-01,-1.491806656122207642e-01,-1.480195969343185425e-01,-1.480195969343185425e-01,-1.469043195247650146e-01,-1.469043195247650146e-01,-1.469043195247650146e-01,-1.460035145282745361e-01,-1.460035145282745361e-01,-1.458436846733093262e-01,-1.414684951305389404e-01,-1.414684951305389404e-01,-1.414684951305389404e-01,-1.411227583885192871e-01,-1.411227583885192871e-01,-1.411227583885192871e-01,-1.417179852724075317e-01,-1.417179852724075317e-01,-1.417179852724075317e-01,-1.434591263532638550e-01,-1.434591263532638550e-01,-1.391734927892684937e-01,-1.391734927892684937e-01,-1.420028954744338989e-01,-1.420028954744338989e-01,-1.420028954744338989e-01,-1.448045521974563599e-01,-1.448045521974563599e-01,-1.448045521974563599e-01,-1.416520923376083374e-01,-1.416520923376083374e-01,-1.468881815671920776e-01,-1.468881815671920776e-01,-1.468881815671920776e-01,-1.488719135522842407e-01,-1.488719135522842407e-01,-1.488719135522842407e-01,-1.558024883270263672e-01,-1.608038842678070068e-01,-1.608038842678070068e-01,-1.608038842678070068e-01,-1.608038842678070068e-01,-1.618468463420867920e-01,-1.618468463420867920e-01,-1.618468463420867920e-01,-1.618468463420867920e-01,-1.591613441705703735e-01,-1.591613441705703735e-01,-1.591613441705703735e-01,-1.552280932664871216e-01,-9.747116267681121826e-02,-9.747116267681121826e-02,-3.539353981614112854e-02,-3.539353981614112854e-02,-1.252330988645553589e-01,-1.252330988645553589e-01,-7.009517401456832886e-02,-7.009517401456832886e-02,3.154574707150459290e-02,3.154574707150459290e-02,1.448866873979568481e-01,1.448866873979568481e-01,1.448866873979568481e-01,2.056575864553451538e-01,2.056575864553451538e-01,2.056575864553451538e-01,2.355148792266845703e-01,2.355148792266845703e-01,2.355148792266845703e-01,2.653625309467315674e-01,2.384474724531173706e-01,2.384474724531173706e-01,2.384474724531173706e-01,2.384474724531173706e-01,2.992685437202453613e-01,2.992685437202453613e-01,2.992685437202453613e-01,2.992685437202453613e-01,3.243674337863922119e-01,3.243674337863922119e-01,3.243674337863922119e-01,3.243674337863922119e-01,3.054884970188140869e-01,3.054884970188140869e-01,3.054884970188140869e-01,2.893978953361511230e-01,2.866171300411224365e-01,2.866171300411224365e-01,2.866171300411224365e-01,2.878033220767974854e-01
-1.622205823659896851e-01,-1.582884043455123901e-01,-1.663580685853958130e-01,-1.663580685853958130e-01,-1.663580685853958130e-01,-1.600525081157684326e-01,-1.600525081157684326e-01,-1.600525081157684326e-01,-1.600525081157684326e-01,-1.598539650440216064e-01,-1.598539650440216064e-01,-1.598539650440216064e-01,-1.621783673763275146e-01,-1.621783673763275146e-01,-1.621783673763275146e-01,-1.659267246723175049e-01,-1.659267246723175049e-01,-1.685349494218826294e-01,-1.685349494218826294e-01,-1.690042763948440552e-01,-1.690042763948440552e-01,-1.692143082618713379e-01,-1.692143082618713379e-01,-1.692143082618713379e-01,-1.694312542676925659e-01,-1.694312542676925659e-01,-1.694312542676925659e-01,-1.694312542676925659e-01,-1.692723035812377930e-01,-1.692723035812377930e-01,-1.684387624263763428e-01,-1.684387624263763428e-01,-1.684387624263763428e-01,-1.671907603740692139e-01,-1.671907603740692139e-01,-1.666890680789947510e-01,-1.651495695114135742e-01,-1.651495695114135742e-01,-1.651495695114135742e-01,-1.639372259378433228e-01,-1.639372259378433228e-01,-1.639372259378433228e-01,-1.638971418142318726e-01,-1.638971418142318726e-01,-1.638971418142318726e-01,-1.648567765951156616e-01,-1.648567765951156616e-01,-1.638575494289398193e-01,-1.638575494289398193e-01,-1.642530858516693115e-01,-1.642530858516693115e-01,-1.642530858516693115e-01,-1.654531359672546387e-01,-1.654531359672546387e-01,-1.654531359672546387e-01,-1.658784002065658569e-01,-1.658784002065658569e-01,-1.691881865262985229e-01,-1.691881865262985229e-01,-1.691881865262985229e-01,-1.724136918783187866e-01,-1.724136918783187866e-01,-1.724136918783187866e-01,-1.825001984834671021e-01,-1.912379711866378784e-01,-1.912379711866378784e-01,-1.912379711866378784e-01,-1.912379711866378784e-01,-1.929802149534225464e-01,-1.929802149534225464e-01,-1.929802149534225464e-01,-1.929802149534225464e-01,-1.831540018320083618e-01,-1.831540018320083618e-01,-1.831540018320083618e-01,-1.818238049745559692e-01,-8.722887188196182251e-02,-8.722887188196182251e-02,-1.964395865797996521e-02,-1.964395865797996521e-02,-1.481095850467681885e-01,-1.481095850467681885e-01,-7.761242985725402832e-02,-7.761242985725402832e-02,4.537981376051902771e-02,4.537981376051902771e-02,1.680722981691360474e-01,1.680722981691360474e-01,1.680722981691360474e-01,2.449129968881607056e-01,2.449129968881607056e-01,2.449129968881607056e-01,2.765354216098785400e-01,2.765354216098785400e-01,2.765354216098785400e-01,2.978615462779998779e-01,2.730873227119445801e-01,2.730873227119445801e-01,2.730873227119445801e-01,2.730873227119445801e-01,3.175879120826721191e-01,3.175879120826721191e-01,3.175879120826721191e-01,3.175879120826721191e-01,3.460163176059722900e-01,3.460163176059722900e-01,3.460163176059722900e-01,3.460163176059722900e-01,3.425241112709045410e-01,3.425241112709045410e-01,3.425241112709045410e-01,3.314093351364135742e-01,3.327065408229827881e-01,3.327065408229827881e-01,3.327065408229827881e-01,3.365462422370910645e-01
-8.132353425025939941e-02,-8.242651075124740601e-02,-9.288402646780014038e-02,-9.288402646780014038e-02,-9.288402646780014038e-02,-9.362075477838516235e-02,-9.362075477838516235e-02,-9.362075477838516235e-02,-9.362075477838516235e-02,-1.002815961837768555e-01,-1.002815961837768555e-01,-1.002815961837768555e-01,-1.067509129643440247e-01,-1.067509129643440247e-01,-1.067509129643440247e-01,-1.117371991276741028e-01,-1.117371991276741028e-01,-1.164035871624946594e-01,-1.164035871624946594e-01,-1.230582296848297119e-01,-1.230582296848297119e-01,-1.270015090703964233e-01,-1.270015090703964233e-01,-1.270015090703964233e-01,-1.309837102890014648e-01,-1.309837102890014648e-01,-1.309837102890014648e-01,-1.309837102890014648e-01,-1.348191946744918823e-01,-1.348191946744918823e-01,-1.378229707479476929e-01,-1.378229707479476929e-01,-1.378229707479476929e-01,-1.402534693479537964e-01,-1.402534693479537964e-01,-1.426160186529159546e-01,-1.427477300167083740e-01,-1.427477300167083740e-01,-1.427477300167083740e-01,-1.439707279205322266e-01,-1.439707279205322266e-01,-1.439707279205322266e-01,-1.448151916265487671e-01,-1.448151916265487671e-01,-1.448151916265487671e-01,-1.450790166854858398e-01,-1.450790166854858398e-01,-1.430867612361907959e-01,-1.430867612361907959e-01,-1.415244191884994507e-01,-1.415244191884994507e-01,-1.415244191884994507e-01,-1.398760378360748291e-01,-1.398760378360748291e-01,-1.398760378360748291e-01,-1.404309272766113281e-01,-1.404309272766113281e-01,-1.420744061470031738e-01,-1.420744061470031738e-01,-1.420744061470031738e-01,-1.466521322727203369e-01,-1.466521322727203369e-01,-1.466521322727203369e-01,-1.577572524547576904e-01,-1.671154052019119263e-01,-1.671154052019119263e-01,-1.671154052019119263e-01,-1.671154052019119263e-01,-1.682481020689010620e-01,-1.682481020689010620e-01,-1.682481020689010620e-01,-1.682481020689010620e-01,-1.552368700504302979e-01,-1.552368700504302979e-01,-1.552368700504302979e-01,-1.579818427562713623e-01,-3.858312219381332397e-02,-3.858312219381332397e-02,2.262846380472183228e-02,2.262846380472183228e-02,-1.276915669441223145e-01,-1.276915669441223145e-01,-5.091363191604614258e-02,-5.091363191604614258e-02,8.809512853622436523e-02,8.809512853622436523e-02,2.018516510725021362e-01,2.018516510725021362e-01,2.018516510725021362e-01,2.750724554061889648e-01,2.750724554061889648e-01,2.750724554061889648e-01,3.080163300037384033e-01,3.080163300037384033e-01,3.080163300037384033e-01,3.265048861503601074e-01,3.061758279800415039e-01,3.061758279800415039e-01,3.061758279800415039e-01,3.061758279800415039e-01,3.453122973442077637e-01,3.453122973442077637e-01,3.453122973442077637e-01,3.453122973442077637e-01,3.736163973808288574e-01,3.736163973808288574e-01,3.736163973808288574e-01,3.736163973808288574e-01,3.757835924625396729e-01,3.757835924625396729e-01,3.757835924625396729e-01,3.723186254501342773e-01,3.722319304943084717e-01,3.722319304943084717e-01,3.722319304943084717e-01,3.738708794116973877e-01
-4.458705335855484009e-02,-5.502764880657196045e-02,-5.261803045868873596e-02,-5.261803045868873596e-02,-5.261803045868873596e-02,-6.385196000337600708e-02,-6.385196000337600708e-02,-6.385196000337600708e-02,-6.385196000337600708e-02,-7.538498193025588989e-02,-7.538498193025588989e-02,-7.538498193025588989e-02,-8.844038844108581543e-02,-8.844038844108581543e-02,-8.844038844108581543e-02,-8.842345327138900757e-02,-8.842345327138900757e-02,-8.730011433362960815e-02,-8.730011433362960815e-02,-9.682876616716384888e-02,-9.682876616716384888e-02,-9.441015124320983887e-02,-9.441015124320983887e-02,-9.441015124320983887e-02,-9.478349983692169189e-02,-9.478349983692169189e-02,-9.478349983692169189e-02,-9.478349983692169189e-02,-9.719775617122650146e-02,-9.719775617122650146e-02,-9.955865889787673950e-02,-9.955865889787673950e-02,-9.955865889787673950e-02,-1.011651530861854553e-01,-1.011651530861854553e-01,-1.024892404675483704e-01,-1.028658449649810791e-01,-1.028658449649810791e-01,-1.028658449649810791e-01,-1.043543890118598938e-01,-1.043543890118598938e-01,-1.043543890118598938e-01,-1.056469604372978210e-01,-1.056469604372978210e-01,-1.056469604372978210e-01,-1.065172404050827026e-01,-1.065172404050827026e-01,-1.076197102665901184e-01,-1.076197102665901184e-01,-1.073757782578468323e-01,-1.073757782578468323e-01,-1.073757782578468323e-01,-1.056307628750801086e-01,-1.056307628750801086e-01,-1.056307628750801086e-01,-1.093454882502555847e-01,-1.093454882502555847e-01,-1.069770753383636475e-01,-1.069770753383636475e-01,-1.069770753383636475e-01,-1.091914623975753784e-01,-1.091914623975753784e-01,-1.091914623975753784e-01,-1.194308772683143616e-01,-1.258727163076400757e-01,-1.258727163076400757e-01,-1.258727163076400757e-01,-1.258727163076400757e-01,-1.306137144565582275e-01,-1.306137144565582275e-01,-1.306137144565582275e-01,-1.306137144565582275e-01,-1.108154505491256714e-01,-1.108154505491256714e-01,-1.108154505491256714e-01,-1.126251444220542908e-01,2.893882431089878082e-02,2.893882431089878082e-02,9.890069067478179932e-02,9.890069067478179932e-02,-8.894167840480804443e-02,-8.894167840480804443e-02,2.710327506065368652e-03,2.710327506065368652e-03,1.641114056110382080e-01,1.641114056110382080e-01,2.909243106842041016e-01,2.909243106842041016e-01,2.909243106842041016e-01,3.794531226158142090e-01,3.794531226158142090e-01,3.794531226158142090e-01,4.146330058574676514e-01,4.146330058574676514e-01,4.146330058574676514e-01,4.291207492351531982e-01,4.049060642719268799e-01,4.049060642719268799e-01,4.049060642719268799e-01,4.049060642719268799e-01,4.252024590969085693e-01,4.252024590969085693e-01,4.252024590969085693e-01,4.252024590969085693e-01,4.260741770267486572e-01,4.260741770267486572e-01,4.260741770267486572e-01,4.260741770267486572e-01,4.228294193744659424e-01,4.228294193744659424e-01,4.228294193744659424e-01,4.148245453834533691e-01,4.157384634017944336e-01,4.157384634017944336e-01,4.157384634017944336e-01,4.188107252120971680e-01
-3.302530944347381592e-02,-3.749706223607063293e-02,-3.183002769947052002e-02,-3.183002769947052002e-02,-3.183002769947052002e-02,-3.786207735538482666e-02,-3.786207735538482666e-02,-3.786207735538482666e-02,-3.786207735538482666e-02,-4.202741757035255432e-02,-4.202741757035255432e-02,-4.202741757035255432e-02,-5.062000826001167297e-02,-5.062000826001167297e-02,-5.062000826001167297e-02,-4.692089930176734924e-02,-4.692089930176734924e-02,-4.159637168049812317e-02,-4.159637168049812317e-02,-4.968014359474182129e-02,-4.968014359474182129e-02,-4.338684305548667908e-02,-4.338684305548667908e-02,-4.338684305548667908e-02,-4.061349853873252869e-02,-4.061349853873252869e-02,-4.061349853873252869e-02,-4.061349853873252869e-02,-4.183408245444297791e-02,-4.183408245444297791e-02,-4.552502930164337158e-02,-4.552502930164337158e-02,-4.552502930164337158e-02,-5.125604942440986633e-02,-5.125604942440986633e-02,-5.781305581331253052e-02,-5.305764824151992798e-02,-5.305764824151992798e-02,-5.305764824151992798e-02,-5.869720503687858582e-02,-5.869720503687858582e-02,-5.869720503687858582e-02,-6.314864009618759155e-02,-6.314864009618759155e-02,-6.314864009618759155e-02,-6.672202050685882568e-02,-6.672202050685882568e-02,-6.329145282506942749e-02,-6.329145282506942749e-02,-6.713942438364028931e-02,-6.713942438364028931e-02,-6.713942438364028931e-02,-7.067374885082244873e-02,-7.067374885082244873e-02,-7.067374885082244873e-02,-7.187035679817199707e-02,-7.187035679817199707e-02,-7.580491155385971069e-02,-7.580491155385971069e-02,-7.580491155385971069e-02,-7.930545508861541748e-02,-7.930545508861541748e-02,-7.930545508861541748e-02,-8.847767859697341919e-02,-9.370173513889312744e-02,-9.370173513889312744e-02,-9.370173513889312744e-02,-9.370173513889312744e-02,-9.328121691942214966e-02,-9.328121691942214966e-02,-9.328121691942214966e-02,-9.328121691942214966e-02,-7.781895250082015991e-02,-7.781895250082015991e-02,-7.781895250082015991e-02,-7.441376894712448120e-02,3.297880291938781738e-02,3.297880291938781738e-02,1.054820492863655090e-01,1.054820492863655090e-01,-3.104595281183719635e-02,-3.104595281183719635e-02,4.979532584547996521e-02,4.979532584547996521e-02,1.784318089485168457e-01,1.784318089485168457e-01,2.965773046016693115e-01,2.965773046016693115e-01,2.965773046016693115e-01,3.759097754955291748e-01,3.759097754955291748e-01,3.759097754955291748e-01,4.121653139591217041e-01,4.121653139591217041e-01,4.121653139591217041e-01,4.307590425014495850e-01,3.988876640796661377e-01,3.988876640796661377e-01,3.988876640796661377e-01,3.988876640796661377e-01,4.268642961978912354e-01,4.268642961978912354e-01,4.268642961978912354e-01,4.268642961978912354e-01,4.283019900321960449e-01,4.283019900321960449e-01,4.283019900321960449e-01,4.283019900321960449e-01,4.239783585071563721e-01,4.239783585071563721e-01,4.239783585071563721e-01,4.192709922790527344e-01,4.197125434875488281e-01,4.197125434875488281e-01,4.197125434875488281e-01,4.199100434780120850e-01
-2.333603799343109131e-02,-2.346718870103359222e-02,-2.405318804085254669e-02,-2.405318804085254669e-02,-2.405318804085254669e-02,-2.342213876545429230e-02,-2.342213876545429230e-02,-2.342213876545429230e-02,-2.342213876545429230e-02,-2.424667775630950928e-02,-2.424667775630950928e-02,-2.424667775630950928e-02,-3.130950033664703369e-02,-3.130950033664703369e-02,-3.130950033664703369e-02,-3.052316047251224518e-02,-3.052316047251224518e-02,-2.763456106185913086e-02,-2.763456106185913086e-02,-3.380351141095161438e-02,-3.380351141095161438e-02,-2.883066609501838684e-02,-2.883066609501838684e-02,-2.883066609501838684e-02,-2.623292431235313416e-02,-2.623292431235313416e-02,-2.623292431235313416e-02,-2.623292431235313416e-02,-2.742263674736022949e-02,-2.742263674736022949e-02,-3.091279603540897369e-02,-3.091279603540897369e-02,-3.091279603540897369e-02,-3.469616919755935669e-02,-3.469616919755935669e-02,-4.094635322690010071e-02,-3.327209874987602234e-02,-3.327209874987602234e-02,-3.327209874987602234e-02,-3.955574706196784973e-02,-3.955574706196784973e-02,-3.955574706196784973e-02,-4.395430535078048706e-02,-4.395430535078048706e-02,-4.395430535078048706e-02,-4.589809477329254150e-02,-4.589809477329254150e-02,-4.175730794668197632e-02,-4.175730794668197632e-02,-4.355942085385322571e-02,-4.355942085385322571e-02,-4.355942085385322571e-02,-4.692209139466285706e-02,-4.692209139466285706e-02,-4.692209139466285706e-02,-4.686038196086883545e-02,-4.686038196086883545e-02,-5.325095728039741516e-02,-5.325095728039741516e-02,-5.325095728039741516e-02,-5.469457805156707764e-02,-5.469457805156707764e-02,-5.469457805156707764e-02,-6.850392371416091919e-02,-9.156497567892074585e-02,-9.156497567892074585e-02,-9.156497567892074585e-02,-9.156497567892074585e-02,-9.363488107919692993e-02,-9.363488107919692993e-02,-9.363488107919692993e-02,-9.363488107919692993e-02,-7.020313292741775513e-02,-7.020313292741775513e-02,-7.020313292741775513e-02,-7.444729655981063843e-02,7.362865656614303589e-02,7.362865656614303589e-02,1.450564116239547729e-01,1.450564116239547729e-01,-4.516217485070228577e-02,-4.516217485070228577e-02,4.738676548004150391e-02,4.738676548004150391e-02,2.181040495634078979e-01,2.181040495634078979e-01,3.294554054737091064e-01,3.294554054737091064e-01,3.294554054737091064e-01,3.953126370906829834e-01,3.953126370906829834e-01,3.953126370906829834e-01,4.279579520225524902e-01,4.279579520225524902e-01,4.279579520225524902e-01,4.404780864715576172e-01,4.123475849628448486e-01,4.123475849628448486e-01,4.123475849628448486e-01,4.123475849628448486e-01,4.221711456775665283e-01,4.221711456775665283e-01,4.221711456775665283e-01,4.221711456775665283e-01,4.090645015239715576e-01,4.090645015239715576e-01,4.090645015239715576e-01,4.090645015239715576e-01,4.084618985652923584e-01,4.084618985652923584e-01,4.084618985652923584e-01,4.041685163974761963e-01,4.031216502189636230e-01,4.031216502189636230e-01,4.031216502189636230e-01,4.027124345302581787e-01
-4.931190609931945801e-02,-4.476145282387733459e-02,-4.495282098650932312e-02,-4.495282098650932312e-02,-4.495282098650932312e-02,-4.303049296140670776e-02,-4.303049296140670776e-02,-4.303049296140670776e-02,-4.303049296140670776e-02,-4.229634627699851990e-02,-4.229634627699851990e-02,-4.229634627699851990e-02,-4.784809425473213196e-02,-4.784809425473213196e-02,-4.784809425473213196e-02,-4.637322574853897095e-02,-4.637322574853897095e-02,-4.651481285691261292e-02,-4.651481285691261292e-02,-5.282212421298027039e-02,-5.282212421298027039e-02,-5.092537030577659607e-02,-5.092537030577659607e-02,-5.092537030577659607e-02,-5.026228725910186768e-02,-5.026228725910186768e-02,-5.026228725910186768e-02,-5.026228725910186768e-02,-5.097271502017974854e-02,-5.097271502017974854e-02,-5.227120965719223022e-02,-5.227120965719223022e-02,-5.227120965719223022e-02,-5.287308990955352783e-02,-5.287308990955352783e-02,-5.416096001863479614e-02,-5.274871364235877991e-02,-5.274871364235877991e-02,-5.274871364235877991e-02,-5.506234243512153625e-02,-5.506234243512153625e-02,-5.506234243512153625e-02,-5.576456338167190552e-02,-5.576456338167190552e-02,-5.576456338167190552e-02,-5.520047619938850403e-02,-5.520047619938850403e-02,-5.591800063848495483e-02,-5.591800063848495483e-02,-5.680887773633003235e-02,-5.680887773633003235e-02,-5.680887773633003235e-02,-6.166539713740348816e-02,-6.166539713740348816e-02,-6.166539713740348816e-02,-6.061449646949768066e-02,-6.061449646949768066e-02,-6.778065860271453857e-02,-6.778065860271453857e-02,-6.778065860271453857e-02,-6.307802349328994751e-02,-6.307802349328994751e-02,-6.307802349328994751e-02,-6.815354526042938232e-02,-8.460787683725357056e-02,-8.460787683725357056e-02,-8.460787683725357056e-02,-8.460787683725357056e-02,-8.580471575260162354e-02,-8.580471575260162354e-02,-8.580471575260162354e-02,-8.580471575260162354e-02,-5.890306830406188965e-02,-5.890306830406188965e-02,-5.890306830406188965e-02,-6.220918148756027222e-02,8.083186298608779907e-02,8.083186298608779907e-02,1.584871709346771240e-01,1.584871709346771240e-01,-4.377276077866554260e-02,-4.377276077866554260e-02,5.073521286249160767e-02,5.073521286249160767e-02,2.320790439844131470e-01,2.320790439844131470e-01,3.363185524940490723e-01,3.363185524940490723e-01,3.363185524940490723e-01,3.950775265693664551e-01,3.950775265693664551e-01,3.950775265693664551e-01,4.235340952873229980e-01,4.235340952873229980e-01,4.235340952873229980e-01,4.313873350620269775e-01,4.117923676967620850e-01,4.117923676967620850e-01,4.117923676967620850e-01,4.117923676967620850e-01,4.130970835685729980e-01,4.130970835685729980e-01,4.130970835685729980e-01,4.130970835685729980e-01,3.902125954627990723e-01,3.902125954627990723e-01,3.902125954627990723e-01,3.902125954627990723e-01,3.904294371604919434e-01,3.904294371604919434e-01,3.904294371604919434e-01,3.868890106678009033e-01,3.871299624443054199e-01,3.871299624443054199e-01,3.871299624443054199e-01,3.872496783733367920e-01
-1.402385979890823364e-01,-1.381157189607620239e-01,-1.364903450012207031e-01,-1.364903450012207031e-01,-1.364903450012207031e-01,-1.363497376441955566e-01,-1.363497376441955566e-01,-1.363497376441955566e-01,-1.363497376441955566e-01,-1.364752799272537231e-01,-1.364752799272537231e-01,-1.364752799272537231e-01,-1.394651979207992554e-01,-1.394651979207992554e-01,-1.394651979207992554e-01,-1.362232118844985962e-01,-1.362232118844985962e-01,-1.327729076147079468e-01,-1.327729076147079468e-01,-1.359681040048599243e-01,-1.359681040048599243e-01,-1.311397850513458252e-01,-1.311397850513458252e-01,-1.311397850513458252e-01,-1.256723701953887939e-01,-1.256723701953887939e-01,-1.256723701953887939e-01,-1.256723701953887939e-01,-1.205679699778556824e-01,-1.205679699778556824e-01,-1.152850612998008728e-01,-1.152850612998008728e-01,-1.152850612998008728e-01,-1.114305406808853149e-01,-1.114305406808853149e-01,-1.119975447654724121e-01,-1.167060583829879761e-01,-1.167060583829879761e-01,-1.167060583829879761e-01,-1.154059469699859619e-01,-1.154059469699859619e-01,-1.154059469699859619e-01,-1.161577552556991577e-01,-1.161577552556991577e-01,-1.161577552556991577e-01,-1.187026202678680420e-01,-1.187026202678680420e-01,-1.178878843784332275e-01,-1.178878843784332275e-01,-1.197218522429466248e-01,-1.197218522429466248e-01,-1.197218522429466248e-01,-1.225192546844482422e-01,-1.225192546844482422e-01,-1.225192546844482422e-01,-1.242834776639938354e-01,-1.242834776639938354e-01,-1.306614726781845093e-01,-1.306614726781845093e-01,-1.306614726781845093e-01,-1.325985640287399292e-01,-1.325985640287399292e-01,-1.325985640287399292e-01,-1.386569291353225708e-01,-1.524339616298675537e-01,-1.524339616298675537e-01,-1.524339616298675537e-01,-1.524339616298675537e-01,-1.527595967054367065e-01,-1.527595967054367065e-01,-1.527595967054367065e-01,-1.527595967054367065e-01,-1.425655186176300049e-01,-1.425655186176300049e-01,-1.425655186176300049e-01,-1.390000879764556885e-01,-4.710860177874565125e-02,-4.710860177874565125e-02,1.854332908987998962e-02,1.854332908987998962e-02,-1.099629327654838562e-01,-1.099629327654838562e-01,-3.715257719159126282e-02,-3.715257719159126282e-02,9.113716334104537964e-02,9.113716334104537964e-02,2.115631997585296631e-01,2.115631997585296631e-01,2.115631997585296631e-01,2.768251895904541016e-01,2.768251895904541016e-01,2.768251895904541016e-01,3.117135763168334961e-01,3.117135763168334961e-01,3.117135763168334961e-01,3.256511986255645752e-01,3.031900823116302490e-01,3.031900823116302490e-01,3.031900823116302490e-01,3.031900823116302490e-01,3.284728229045867920e-01,3.284728229045867920e-01,3.284728229045867920e-01,3.284728229045867920e-01,3.342733681201934814e-01,3.342733681201934814e-01,3.342733681201934814e-01,3.342733681201934814e-01,3.382104635238647461e-01,3.382104635238647461e-01,3.382104635238647461e-01,3.370086252689361572e-01,3.382976353168487549e-01,3.382976353168487549e-01,3.382976353168487549e-01,3.403334319591522217e-01
-1.761389523744583130e-01,-1.784160733222961426e-01,-1.776349842548370361e-01,-1.776349842548370361e-01,-1.776349842548370361e-01,-1.789964586496353149e-01,-1.789964586496353149e-01,-1.789964586496353149e-01,-1.789964586496353149e-01,-1.798788607120513916e-01,-1.798788607120513916e-01,-1.798788607120513916e-01,-1.835439801216125488e-01,-1.835439801216125488e-01,-1.835439801216125488e-01,-1.825244426727294922e-01,-1.825244426727294922e-01,-1.822572499513626099e-01,-1.822572499513626099e-01,-1.861628592014312744e-01,-1.861628592014312744e-01,-1.833420395851135254e-01,-1.833420395851135254e-01,-1.833420395851135254e-01,-1.801363974809646606e-01,-1.801363974809646606e-01,-1.801363974809646606e-01,-1.801363974809646606e-01,-1.771423369646072388e-01,-1.771423369646072388e-01,-1.738167405128479004e-01,-1.738167405128479004e-01,-1.738167405128479004e-01,-1.707202345132827759e-01,-1.707202345132827759e-01,-1.676967442035675049e-01,-1.730600893497467041e-01,-1.730600893497467041e-01,-1.730600893497467041e-01,-1.684058308601379395e-01,-1.684058308601379395e-01,-1.684058308601379395e-01,-1.642142981290817261e-01,-1.642142981290817261e-01,-1.642142981290817261e-01,-1.606796532869338989e-01,-1.606796532869338989e-01,-1.652791500091552734e-01,-1.652791500091552734e-01,-1.611711680889129639e-01,-1.611711680889129639e-01,-1.611711680889129639e-01,-1.602272391319274902e-01,-1.602272391319274902e-01,-1.602272391319274902e-01,-1.670237481594085693e-01,-1.670237481594085693e-01,-1.730305105447769165e-01,-1.730305105447769165e-01,-1.730305105447769165e-01,-1.805399507284164429e-01,-1.805399507284164429e-01,-1.805399507284164429e-01,-1.937275379896163940e-01,-2.086028754711151123e-01,-2.086028754711151123e-01,-2.086028754711151123e-01,-2.086028754711151123e-01,-2.116952836513519287e-01,-2.116952836513519287e-01,-2.116952836513519287e-01,-2.116952836513519287e-01,-2.030936181545257568e-01,-2.030936181545257568e-01,-2.030936181545257568e-01,-1.994982063770294189e-01,-1.180810183286666870e-01,-1.180810183286666870e-01,-5.990168079733848572e-02,-5.990168079733848572e-02,-1.740551441907882690e-01,-1.740551441907882690e-01,-1.118049770593643188e-01,-1.118049770593643188e-01,6.217639893293380737e-03,6.217639893293380737e-03,1.184472441673278809e-01,1.184472441673278809e-01,1.184472441673278809e-01,1.784458011388778687e-01,1.784458011388778687e-01,1.784458011388778687e-01,2.128117382526397705e-01,2.128117382526397705e-01,2.128117382526397705e-01,2.423904985189437866e-01,2.161508202552795410e-01,2.161508202552795410e-01,2.161508202552795410e-01,2.161508202552795410e-01,2.665787935256958008e-01,2.665787935256958008e-01,2.665787935256958008e-01,2.665787935256958008e-01,2.909042835235595703e-01,2.909042835235595703e-01,2.909042835235595703e-01,2.909042835235595703e-01,2.891792058944702148e-01,2.891792058944702148e-01,2.891792058944702148e-01,2.870348989963531494e-01,2.847198247909545898e-01,2.847198247909545898e-01,2.847198247909545898e-01,2.819647192955017090e-01
-2.072998583316802979e-01,-2.195245027542114258e-01,-2.133561223745346069e-01,-2.133561223745346069e-01,-2.133561223745346069e-01,-2.276740670204162598e-01,-2.276740670204162598e-01,-2.276740670204162598e-01,-2.276740670204162598e-01,-2.385231703519821167e-01,-2.385231703519821167e-01,-2.385231703519821167e-01,-2.496574521064758301e-01,-2.496574521064758301e-01,-2.496574521064758301e-01,-2.459692507982254028e-01,-2.459692507982254028e-01,-2.398565411567687988e-01,-2.398565411567687988e-01,-2.470569014549255371e-01,-2.470569014549255371e-01,-2.382039576768875122e-01,-2.382039576768875122e-01,-2.382039576768875122e-01,-2.290308922529220581e-01,-2.290308922529220581e-01,-2.290308922529220581e-01,-2.290308922529220581e-01,-2.211824953556060791e-01,-2.211824953556060791e-01,-2.135673910379409790e-01,-2.135673910379409790e-01,-2.135673910379409790e-01,-2.072301954030990601e-01,-2.072301954030990601e-01,-2.021173238754272461e-01,-2.122577875852584839e-01,-2.122577875852584839e-01,-2.122577875852584839e-01,-2.048061043024063110e-01,-2.048061043024063110e-01,-2.048061043024063110e-01,-1.985088288784027100e-01,-1.985088288784027100e-01,-1.985088288784027100e-01,-1.935469061136245728e-01,-1.935469061136245728e-01,-2.006040960550308228e-01,-2.006040960550308228e-01,-1.943697780370712280e-01,-1.943697780370712280e-01,-1.943697780370712280e-01,-1.904703527688980103e-01,-1.904703527688980103e-01,-1.904703527688980103e-01,-2.027106434106826782e-01,-2.027106434106826782e-01,-2.010678797960281372e-01,-2.010678797960281372e-01,-2.010678797960281372e-01,-2.127921581268310547e-01,-2.127921581268310547e-01,-2.127921581268310547e-01,-2.296259254217147827e-01,-2.363062649965286255e-01,-2.363062649965286255e-01,-2.363062649965286255e-01,-2.363062649965286255e-01,-2.434559464454650879e-01,-2.434559464454650879e-01,-2.434559464454650879e-01,-2.434559464454650879e-01,-2.284257709980010986e-01,-2.284257709980010986e-01,-2.284257709980010986e-01,-2.287870496511459351e-01,-1.233910396695137024e-01,-1.233910396695137024e-01,-6.227526068687438965e-02,-6.227526068687438965e-02,-2.121708691120147705e-01,-2.121708691120147705e-01,-1.510850489139556885e-01,-1.510850489139556885e-01,4.143992904573678970e-03,4.143992904573678970e-03,1.128247380256652832e-01,1.128247380256652832e-01,1.128247380256652832e-01,1.794495582580566406e-01,1.794495582580566406e-01,1.794495582580566406e-01,2.149485349655151367e-01,2.149485349655151367e-01,2.149485349655151367e-01,2.426804155111312866e-01,2.155022025108337402e-01,2.155022025108337402e-01,2.155022025108337402e-01,2.155022025108337402e-01,2.614856958389282227e-01,2.614856958389282227e-01,2.614856958389282227e-01,2.614856958389282227e-01,2.817239463329315186e-01,2.817239463329315186e-01,2.817239463329315186e-01,2.817239463329315186e-01,2.771162688732147217e-01,2.771162688732147217e-01,2.771162688732147217e-01,2.686149477958679199e-01,2.711064219474792480e-01,2.711064219474792480e-01,2.711064219474792480e-01,2.738807201385498047e-01
-1.804222315549850464e-01,-1.986732482910156250e-01,-1.869708597660064697e-01,-1.869708597660064697e-01,-1.869708597660064697e-01,-2.026136815547943115e-01,-2.026136815547943115e-01,-2.026136815547943115e-01,-2.026136815547943115e-01,-2.075043171644210815e-01,-2.075043171644210815e-01,-2.075043171644210815e-01,-2.169085741043090820e-01,-2.169085741043090820e-01,-2.169085741043090820e-01,-2.111102193593978882e-01,-2.111102193593978882e-01,-2.027136534452438354e-01,-2.027136534452438354e-01,-2.132402658462524414e-01,-2.132402658462524414e-01,-2.030449658632278442e-01,-2.030449658632278442e-01,-2.030449658632278442e-01,-1.924902349710464478e-01,-1.924902349710464478e-01,-1.924902349710464478e-01,-1.924902349710464478e-01,-1.836041808128356934e-01,-1.836041808128356934e-01,-1.765332072973251343e-01,-1.765332072973251343e-01,-1.765332072973251343e-01,-1.725680232048034668e-01,-1.725680232048034668e-01,-1.713908314704895020e-01,-1.809387654066085815e-01,-1.809387654066085815e-01,-1.809387654066085815e-01,-1.769168078899383545e-01,-1.769168078899383545e-01,-1.769168078899383545e-01,-1.743870675563812256e-01,-1.743870675563812256e-01,-1.743870675563812256e-01,-1.725050806999206543e-01,-1.725050806999206543e-01,-1.781356632709503174e-01,-1.781356632709503174e-01,-1.739922016859054565e-01,-1.739922016859054565e-01,-1.739922016859054565e-01,-1.713796406984329224e-01,-1.713796406984329224e-01,-1.713796406984329224e-01,-1.808556020259857178e-01,-1.808556020259857178e-01,-1.785357147455215454e-01,-1.785357147455215454e-01,-1.785357147455215454e-01,-1.860957741737365723e-01,-1.860957741737365723e-01,-1.860957741737365723e-01,-1.952849924564361572e-01,-2.001253664493560791e-01,-2.001253664493560791e-01,-2.001253664493560791e-01,-2.001253664493560791e-01,-2.014240771532058716e-01,-2.014240771532058716e-01,-2.014240771532058716e-01,-2.014240771532058716e-01,-1.853009611368179321e-01,-1.853009611368179321e-01,-1.853009611368179321e-01,-1.840795725584030151e-01,-8.907183259725570679e-02,-8.907183259725570679e-02,-2.549897134304046631e-02,-2.549897134304046631e-02,-1.673927903175354004e-01,-1.673927903175354004e-01,-1.008929088711738586e-01,-1.008929088711738586e-01,4.809942841529846191e-02,4.809942841529846191e-02,1.499917358160018921e-01,1.499917358160018921e-01,1.499917358160018921e-01,2.132954895496368408e-01,2.132954895496368408e-01,2.132954895496368408e-01,2.451347410678863525e-01,2.451347410678863525e-01,2.451347410678863525e-01,2.578471302986145020e-01,2.394903004169464111e-01,2.394903004169464111e-01,2.394903004169464111e-01,2.394903004169464111e-01,2.640736997127532959e-01,2.640736997127532959e-01,2.640736997127532959e-01,2.640736997127532959e-01,2.640175819396972656e-01,2.640175819396972656e-01,2.640175819396972656e-01,2.640175819396972656e-01,2.499207854270935059e-01,2.499207854270935059e-01,2.499207854270935059e-01,2.390896826982498169e-01,2.404953837394714355e-01,2.404953837394714355e-01,2.404953837394714355e-01,2.432257533073425293e-01
-1.608475148677825928e-01,-1.701746582984924316e-01,-1.703830808401107788e-01,-1.703830808401107788e-01,-1.703830808401107788e-01,-1.774761527776718140e-01,-1.774761527776718140e-01,-1.774761527776718140e-01,-1.774761527776718140e-01,-1.817774921655654907e-01,-1.817774921655654907e-01,-1.817774921655654907e-01,-1.873932331800460815e-01,-1.873932331800460815e-01,-1.873932331800460815e-01,-1.858901530504226685e-01,-1.858901530504226685e-01,-1.830412596464157104e-01,-1.830412596464157104e-01,-1.874747425317764282e-01,-1.874747425317764282e-01,-1.823718845844268799e-01,-1.823718845844268799e-01,-1.823718845844268799e-01,-1.765693128108978271e-01,-1.765693128108978271e-01,-1.765693128108978271e-01,-1.765693128108978271e-01,-1.710487157106399536e-01,-1.710487157106399536e-01,-1.663541793823242188e-01,-1.663541793823242188e-01,-1.663541793823242188e-01,-1.633881926536560059e-01,-1.633881926536560059e-01,-1.631207466125488281e-01,-1.691108196973800659e-01,-1.691108196973800659e-01,-1.691108196973800659e-01,-1.676383316516876221e-01,-1.676383316516876221e-01,-1.676383316516876221e-01,-1.692950427532196045e-01,-1.692950427532196045e-01,-1.692950427532196045e-01,-1.731896847486495972e-01,-1.731896847486495972e-01,-1.729011684656143188e-01,-1.729011684656143188e-01,-1.742878109216690063e-01,-1.742878109216690063e-01,-1.742878109216690063e-01,-1.749027818441390991e-01,-1.749027818441390991e-01,-1.749027818441390991e-01,-1.771229654550552368e-01,-1.771229654550552368e-01,-1.788012981414794922e-01,-1.788012981414794922e-01,-1.788012981414794922e-01,-1.834729462862014771e-01,-1.834729462862014771e-01,-1.834729462862014771e-01,-1.903983950614929199e-01,-1.908404082059860229e-01,-1.908404082059860229e-01,-1.908404082059860229e-01,-1.908404082059860229e-01,-1.910296529531478882e-01,-1.910296529531478882e-01,-1.910296529531478882e-01,-1.910296529531478882e-01,-1.846545934677124023e-01,-1.846545934677124023e-01,-1.846545934677124023e-01,-1.811696290969848633e-01,-1.180602535605430603e-01,-1.180602535605430603e-01,-6.170077249407768250e-02,-6.170077249407768250e-02,-1.548240333795547485e-01,-1.548240333795547485e-01,-9.867544472217559814e-02,-9.867544472217559814e-02,2.071257214993238449e-03,2.071257214993238449e-03,1.137017980217933655e-01,1.137017980217933655e-01,1.137017980217933655e-01,1.732230782508850098e-01,1.732230782508850098e-01,1.732230782508850098e-01,2.044384032487869263e-01,2.044384032487869263e-01,2.044384032487869263e-01,2.309114634990692139e-01,2.080690711736679077e-01,2.080690711736679077e-01,2.080690711736679077e-01,2.080690711736679077e-01,2.558663487434387207e-01,2.558663487434387207e-01,2.558663487434387207e-01,2.558663487434387207e-01,2.778025865554809570e-01,2.778025865554809570e-01,2.778025865554809570e-01,2.778025865554809570e-01,2.654400169849395752e-01,2.654400169849395752e-01,2.654400169849395752e-01,2.521339058876037598e-01,2.542597055435180664e-01,2.542597055435180664e-01,2.542597055435180664e-01,2.572625279426574707e-01
-1.435588300228118896e-01,-1.450578123331069946e-01,-1.512839496135711670e-01,-1.512839496135711670e-01,-1.512839496135711670e-01,-1.556462496519088745e-01,-1.556462496519088745e-01,-1.556462496519088745e-01,-1.556462496519088745e-01,-1.641602665185928345e-01,-1.641602665185928345e-01,-1.641602665185928345e-01,-1.713693588972091675e-01,-1.713693588972091675e-01,-1.713693588972091675e-01,-1.731212586164474487e-01,-1.731212586164474487e-01,-1.728509068489074707e-01,-1.728509068489074707e-01,-1.786590367555618286e-01,-1.786590367555618286e-01,-1.757518947124481201e-01,-1.757518947124481201e-01,-1.757518947124481201e-01,-1.721023470163345337e-01,-1.721023470163345337e-01,-1.721023470163345337e-01,-1.721023470163345337e-01,-1.679308414459228516e-01,-1.679308414459228516e-01,-1.631802171468734741e-01,-1.631802171468734741e-01,-1.631802171468734741e-01,-1.580068618059158325e-01,-1.580068618059158325e-01,-1.536211818456649780e-01,-1.619674265384674072e-01,-1.619674265384674072e-01,-1.619674265384674072e-01,-1.576793044805526733e-01,-1.576793044805526733e-01,-1.576793044805526733e-01,-1.553424149751663208e-01,-1.553424149751663208e-01,-1.553424149751663208e-01,-1.563614159822463989e-01,-1.563614159822463989e-01,-1.601923853158950806e-01,-1.601923853158950806e-01,-1.599587351083755493e-01,-1.599587351083755493e-01,-1.599587351083755493e-01,-1.615437865257263184e-01,-1.615437865257263184e-01,-1.615437865257263184e-01,-1.625794023275375366e-01,-1.625794023275375366e-01,-1.656867414712905884e-01,-1.656867414712905884e-01,-1.656867414712905884e-01,-1.699550598859786987e-01,-1.699550598859786987e-01,-1.699550598859786987e-01,-1.805178374052047729e-01,-1.890637129545211792e-01,-1.890637129545211792e-01,-1.890637129545211792e-01,-1.890637129545211792e-01,-1.929648816585540771e-01,-1.929648816585540771e-01,-1.929648816585540771e-01,-1.929648816585540771e-01,-1.894752532243728638e-01,-1.894752532243728638e-01,-1.894752532243728638e-01,-1.871259063482284546e-01,-1.384152024984359741e-01,-1.384152024984359741e-01,-8.280485868453979492e-02,-8.280485868453979492e-02,-1.655949950218200684e-01,-1.655949950218200684e-01,-1.212017908692359924e-01,-1.212017908692359924e-01,-2.526728250086307526e-02,-2.526728250086307526e-02,9.130165725946426392e-02,9.130165725946426392e-02,9.130165725946426392e-02,1.577860713005065918e-01,1.577860713005065918e-01,1.577860713005065918e-01,1.917990148067474365e-01,1.917990148067474365e-01,1.917990148067474365e-01,2.267798632383346558e-01,2.001386433839797974e-01,2.001386433839797974e-01,2.001386433839797974e-01,2.001386433839797974e-01,2.668178975582122803e-01,2.668178975582122803e-01,2.668178975582122803e-01,2.668178975582122803e-01,3.058447241783142090e-01,3.058447241783142090e-01,3.058447241783142090e-01,3.058447241783142090e-01,2.937434911727905273e-01,2.937434911727905273e-01,2.937434911727905273e-01,2.765273153781890869e-01,2.783502340316772461e-01,2.783502340316772461e-01,2.783502340316772461e-01,2.828812897205352783e-01
-1.023036837577819824e-01,-1.060078740119934082e-01,-1.091824695467948914e-01,-1.091824695467948914e-01,-1.091824695467948914e-01,-1.126973852515220642e-01,-1.126973852515220642e-01,-1.126973852515220642e-01,-1.126973852515220642e-01,-1.208711490035057068e-01,-1.208711490035057068e-01,-1.208711490035057068e-01,-1.328613907098770142e-01,-1.328613907098770142e-01,-1.328613907098770142e-01,-1.348699033260345459e-01,-1.348699033260345459e-01,-1.355444788932800293e-01,-1.355444788932800293e-01,-1.443750113248825073e-01,-1.443750113248825073e-01,-1.430255472660064697e-01,-1.430255472660064697e-01,-1.430255472660064697e-01,-1.420933008193969727e-01,-1.420933008193969727e-01,-1.420933008193969727e-01,-1.420933008193969727e-01,-1.409911513328552246e-01,-1.409911513328552246e-01,-1.394348889589309692e-01,-1.394348889589309692e-01,-1.394348889589309692e-01,-1.379924416542053223e-01,-1.379924416542053223e-01,-1.365592628717422485e-01,-1.418488323688507080e-01,-1.418488323688507080e-01,-1.418488323688507080e-01,-1.395559906959533691e-01,-1.395559906959533691e-01,-1.395559906959533691e-01,-1.374568045139312744e-01,-1.374568045139312744e-01,-1.374568045139312744e-01,-1.369887888431549072e-01,-1.369887888431549072e-01,-1.414982229471206665e-01,-1.414982229471206665e-01,-1.409364789724349976e-01,-1.409364789724349976e-01,-1.409364789724349976e-01,-1.417003571987152100e-01,-1.417003571987152100e-01,-1.417003571987152100e-01,-1.465555578470230103e-01,-1.465555578470230103e-01,-1.477964222431182861e-01,-1.477964222431182861e-01,-1.477964222431182861e-01,-1.543333977460861206e-01,-1.543333977460861206e-01,-1.543333977460861206e-01,-1.693934798240661621e-01,-1.765429228544235229e-01,-1.765429228544235229e-01,-1.765429228544235229e-01,-1.765429228544235229e-01,-1.813271641731262207e-01,-1.813271641731262207e-01,-1.813271641731262207e-01,-1.813271641731262207e-01,-1.759412437677383423e-01,-1.759412437677383423e-01,-1.759412437677383423e-01,-1.748455017805099487e-01,-9.062025696039199829e-02,-9.062025696039199829e-02,-3.297049179673194885e-02,-3.297049179673194885e-02,-1.467397212982177734e-01,-1.467397212982177734e-01,-8.783573657274246216e-02,-8.783573657274246216e-02,2.959534525871276855e-02,2.959534525871276855e-02,1.454712599515914917e-01,1.454712599515914917e-01,1.454712599515914917e-01,2.176174074411392212e-01,2.176174074411392212e-01,2.176174074411392212e-01,2.496759146451950073e-01,2.496759146451950073e-01,2.496759146451950073e-01,2.738746702671051025e-01,2.521807849407196045e-01,2.521807849407196045e-01,2.521807849407196045e-01,2.521807849407196045e-01,2.987101674079895020e-01,2.987101674079895020e-01,2.987101674079895020e-01,2.987101674079895020e-01,3.287146091461181641e-01,3.287146091461181641e-01,3.287146091461181641e-01,3.287146091461181641e-01,3.213776051998138428e-01,3.213776051998138428e-01,3.213776051998138428e-01,3.088750541210174561e-01,3.087465763092041016e-01,3.087465763092041016e-01,3.087465763092041016e-01,3.111076056957244873e-01
-4.315606504678726196e-02,-4.957210645079612732e-02,-5.033764988183975220e-02,-5.033764988183975220e-02,-5.033764988183975220e-02,-5.570796132087707520e-02,-5.570796132087707520e-02,-5.570796132087707520e-02,-5.570796132087707520e-02,-6.204595044255256653e-02,-6.204595044255256653e-02,-6.204595044255256653e-02,-7.129584997892379761e-02,-7.129584997892379761e-02,-7.129584997892379761e-02,-7.254384458065032959e-02,-7.254384458065032959e-02,-7.273703813552856445e-02,-7.273703813552856445e-02,-8.133487403392791748e-02,-8.133487403392791748e-02,-7.901449501514434814e-02,-7.901449501514434814e-02,-7.901449501514434814e-02,-7.843799889087677002e-02,-7.843799889087677002e-02,-7.843799889087677002e-02,-7.843799889087677002e-02,-8.016913384199142456e-02,-8.016913384199142456e-02,-8.253086358308792114e-02,-8.253086358308792114e-02,-8.253086358308792114e-02,-8.404521644115447998e-02,-8.404521644115447998e-02,-8.497797697782516479e-02,-8.646496385335922241e-02,-8.646496385335922241e-02,-8.646496385335922241e-02,-8.772654831409454346e-02,-8.772654831409454346e-02,-8.772654831409454346e-02,-8.821606636047363281e-02,-8.821606636047363281e-02,-8.821606636047363281e-02,-8.854223787784576416e-02,-8.854223787784576416e-02,-9.098439663648605347e-02,-9.098439663648605347e-02,-9.157633036375045776e-02,-9.157633036375045776e-02,-9.157633036375045776e-02,-9.356956183910369873e-02,-9.356956183910369873e-02,-9.356956183910369873e-02,-9.561039507389068604e-02,-9.561039507389068604e-02,-1.017080098390579224e-01,-1.017080098390579224e-01,-1.017080098390579224e-01,-1.069402620196342468e-01,-1.069402620196342468e-01,-1.069402620196342468e-01,-1.213158443570137024e-01,-1.342759430408477783e-01,-1.342759430408477783e-01,-1.342759430408477783e-01,-1.342759430408477783e-01,-1.394836604595184326e-01,-1.394836604595184326e-01,-1.394836604595184326e-01,-1.394836604595184326e-01,-1.325068622827529907e-01,-1.325068622827529907e-01,-1.325068622827529907e-01,-1.326997280120849609e-01,-4.115227609872817993e-02,-4.115227609872817993e-02,2.038737200200557709e-02,2.038737200200557709e-02,-1.010104492306709290e-01,-1.010104492306709290e-01,-3.568887710571289062e-02,-3.568887710571289062e-02,8.696327358484268188e-02,8.696327358484268188e-02,2.000231295824050903e-01,2.000231295824050903e-01,2.000231295824050903e-01,2.712777554988861084e-01,2.712777554988861084e-01,2.712777554988861084e-01,3.033137023448944092e-01,3.033137023448944092e-01,3.033137023448944092e-01,3.237622082233428955e-01,3.033800125122070312e-01,3.033800125122070312e-01,3.033800125122070312e-01,3.033800125122070312e-01,3.448349535465240479e-01,3.448349535465240479e-01,3.448349535465240479e-01,3.448349535465240479e-01,3.737088739871978760e-01,3.737088739871978760e-01,3.737088739871978760e-01,3.737088739871978760e-01,3.735856711864471436e-01,3.735856711864471436e-01,3.735856711864471436e-01,3.660236597061157227e-01,3.666584789752960205e-01,3.666584789752960205e-01,3.666584789752960205e-01,3.697753250598907471e-01
