-5.472211912274360657e-02,-7.322232425212860107e-02,-7.322232425212860107e-02,-7.322232425212860107e-02,-7.322232425212860107e-02,-7.322232425212860107e-02,-7.322232425212860107e-02,-7.322232425212860107e-02,-7.322232425212860107e-02,-7.322232425212860107e-02,-7.069174945354461670e-02,-7.069174945354461670e-02,-7.069174945354461670e-02,-7.069174945354461670e-02,-7.069174945354461670e-02,-7.069174945354461670e-02,-7.486253231763839722e-02,-7.486253231763839722e-02,-7.486253231763839722e-02,-7.486253231763839722e-02,-6.592042744159698486e-02,-6.592042744159698486e-02,-6.592042744159698486e-02,-6.592042744159698486e-02,-6.592042744159698486e-02,-6.592042744159698486e-02,-6.592042744159698486e-02,-6.592042744159698486e-02,-6.592042744159698486e-02,-6.592042744159698486e-02,-6.592042744159698486e-02,-6.592042744159698486e-02,-4.179766401648521423e-02,-4.179766401648521423e-02,-4.179766401648521423e-02,-4.179766401648521423e-02,-4.179766401648521423e-02,-4.179766401648521423e-02,-4.179766401648521423e-02,-4.179766401648521423e-02,-4.179766401648521423e-02,-4.179766401648521423e-02,-4.179766401648521423e-02,-4.179766401648521423e-02,-4.179766401648521423e-02,4.657922778278589249e-03,4.657922778278589249e-03,4.657922778278589249e-03,4.657922778278589249e-03,4.657922778278589249e-03,4.657922778278589249e-03,4.657922778278589249e-03,4.657922778278589249e-03,4.657922778278589249e-03,4.657922778278589249e-03,4.657922778278589249e-03,4.657922778278589249e-03,4.657922778278589249e-03,4.657922778278589249e-03,-4.162807017564773560e-02,9.199098497629165649e-02,9.199098497629165649e-02,9.199098497629165649e-02,9.199098497629165649e-02,9.199098497629165649e-02,9.199098497629165649e-02,9.199098497629165649e-02,9.199098497629165649e-02,9.199098497629165649e-02,9.199098497629165649e-02,9.199098497629165649e-02,9.199098497629165649e-02,9.199098497629165649e-02,9.199098497629165649e-02,9.199098497629165649e-02,8.229655027389526367e-02,8.229655027389526367e-02,8.229655027389526367e-02,8.229655027389526367e-02,8.229655027389526367e-02,8.229655027389526367e-02,8.229655027389526367e-02,8.229655027389526367e-02,8.229655027389526367e-02,8.229655027389526367e-02,8.229655027389526367e-02,8.229655027389526367e-02,8.229655027389526367e-02,8.229655027389526367e-02,6.989565491676330566e-02,6.989565491676330566e-02,6.989565491676330566e-02,6.989565491676330566e-02,6.989565491676330566e-02,6.989565491676330566e-02,6.989565491676330566e-02,6.989565491676330566e-02,6.989565491676330566e-02,6.989565491676330566e-02,6.989565491676330566e-02,6.989565491676330566e-02,6.989565491676330566e-02,1.012251749634742737e-01,1.012251749634742737e-01,1.012251749634742737e-01,1.012251749634742737e-01,1.012251749634742737e-01,1.012251749634742737e-01,1.012251749634742737e-01,1.012251749634742737e-01,1.012251749634742737e-01,1.012251749634742737e-01,-6.261795014142990112e-02,-6.261795014142990112e-02,-6.261795014142990112e-02,-6.261795014142990112e-02
-7.860532030463218689e-03,-3.902643918991088867e-02,-3.902643918991088867e-02,-3.902643918991088867e-02,-3.902643918991088867e-02,-3.902643918991088867e-02,-3.902643918991088867e-02,-3.902643918991088867e-02,-3.902643918991088867e-02,-3.902643918991088867e-02,-3.001644089818000793e-02,-3.001644089818000793e-02,-3.001644089818000793e-02,-3.001644089818000793e-02,-3.001644089818000793e-02,-3.001644089818000793e-02,-4.794432595372200012e-02,-4.794432595372200012e-02,-4.794432595372200012e-02,-4.794432595372200012e-02,-3.296247869729995728e-02,-3.296247869729995728e-02,-3.296247869729995728e-02,-3.296247869729995728e-02,-3.296247869729995728e-02,-3.296247869729995728e-02,-3.296247869729995728e-02,-3.296247869729995728e-02,-3.296247869729995728e-02,-3.296247869729995728e-02,-3.296247869729995728e-02,-3.296247869729995728e-02,-1.151473913341760635e-02,-1.151473913341760635e-02,-1.151473913341760635e-02,-1.151473913341760635e-02,-1.151473913341760635e-02,-1.151473913341760635e-02,-1.151473913341760635e-02,-1.151473913341760635e-02,-1.151473913341760635e-02,-1.151473913341760635e-02,-1.151473913341760635e-02,-1.151473913341760635e-02,-1.151473913341760635e-02,2.571939118206501007e-02,2.571939118206501007e-02,2.571939118206501007e-02,2.571939118206501007e-02,2.571939118206501007e-02,2.571939118206501007e-02,2.571939118206501007e-02,2.571939118206501007e-02,2.571939118206501007e-02,2.571939118206501007e-02,2.571939118206501007e-02,2.571939118206501007e-02,2.571939118206501007e-02,2.571939118206501007e-02,-2.498666010797023773e-02,1.073735654354095459e-01,1.073735654354095459e-01,1.073735654354095459e-01,1.073735654354095459e-01,1.073735654354095459e-01,1.073735654354095459e-01,1.073735654354095459e-01,1.073735654354095459e-01,1.073735654354095459e-01,1.073735654354095459e-01,1.073735654354095459e-01,1.073735654354095459e-01,1.073735654354095459e-01,1.073735654354095459e-01,1.073735654354095459e-01,9.600396454334259033e-02,9.600396454334259033e-02,9.600396454334259033e-02,9.600396454334259033e-02,9.600396454334259033e-02,9.600396454334259033e-02,9.600396454334259033e-02,9.600396454334259033e-02,9.600396454334259033e-02,9.600396454334259033e-02,9.600396454334259033e-02,9.600396454334259033e-02,9.600396454334259033e-02,9.600396454334259033e-02,8.226384222507476807e-02,8.226384222507476807e-02,8.226384222507476807e-02,8.226384222507476807e-02,8.226384222507476807e-02,8.226384222507476807e-02,8.226384222507476807e-02,8.226384222507476807e-02,8.226384222507476807e-02,8.226384222507476807e-02,8.226384222507476807e-02,8.226384222507476807e-02,8.226384222507476807e-02,1.124207749962806702e-01,1.124207749962806702e-01,1.124207749962806702e-01,1.124207749962806702e-01,1.124207749962806702e-01,1.124207749962806702e-01,1.124207749962806702e-01,1.124207749962806702e-01,1.124207749962806702e-01,1.124207749962806702e-01,-5.821533873677253723e-02,-5.821533873677253723e-02,-5.821533873677253723e-02,-5.821533873677253723e-02
1.625437475740909576e-02,-6.806527730077505112e-03,-6.806527730077505112e-03,-6.806527730077505112e-03,-6.806527730077505112e-03,-6.806527730077505112e-03,-6.806527730077505112e-03,-6.806527730077505112e-03,-6.806527730077505112e-03,-6.806527730077505112e-03,-1.576804206706583500e-03,-1.576804206706583500e-03,-1.576804206706583500e-03,-1.576804206706583500e-03,-1.576804206706583500e-03,-1.576804206706583500e-03,-2.112866938114166260e-02,-2.112866938114166260e-02,-2.112866938114166260e-02,-2.112866938114166260e-02,-1.461002882570028305e-02,-1.461002882570028305e-02,-1.461002882570028305e-02,-1.461002882570028305e-02,-1.461002882570028305e-02,-1.461002882570028305e-02,-1.461002882570028305e-02,-1.461002882570028305e-02,-1.461002882570028305e-02,-1.461002882570028305e-02,-1.461002882570028305e-02,-1.461002882570028305e-02,1.900971983559429646e-03,1.900971983559429646e-03,1.900971983559429646e-03,1.900971983559429646e-03,1.900971983559429646e-03,1.900971983559429646e-03,1.900971983559429646e-03,1.900971983559429646e-03,1.900971983559429646e-03,1.900971983559429646e-03,1.900971983559429646e-03,1.900971983559429646e-03,1.900971983559429646e-03,3.761457651853561401e-02,3.761457651853561401e-02,3.761457651853561401e-02,3.761457651853561401e-02,3.761457651853561401e-02,3.761457651853561401e-02,3.761457651853561401e-02,3.761457651853561401e-02,3.761457651853561401e-02,3.761457651853561401e-02,3.761457651853561401e-02,3.761457651853561401e-02,3.761457651853561401e-02,3.761457651853561401e-02,-6.174999289214611053e-03,1.224359348416328430e-01,1.224359348416328430e-01,1.224359348416328430e-01,1.224359348416328430e-01,1.224359348416328430e-01,1.224359348416328430e-01,1.224359348416328430e-01,1.224359348416328430e-01,1.224359348416328430e-01,1.224359348416328430e-01,1.224359348416328430e-01,1.224359348416328430e-01,1.224359348416328430e-01,1.224359348416328430e-01,1.224359348416328430e-01,1.114180609583854675e-01,1.114180609583854675e-01,1.114180609583854675e-01,1.114180609583854675e-01,1.114180609583854675e-01,1.114180609583854675e-01,1.114180609583854675e-01,1.114180609583854675e-01,1.114180609583854675e-01,1.114180609583854675e-01,1.114180609583854675e-01,1.114180609583854675e-01,1.114180609583854675e-01,1.114180609583854675e-01,1.002091020345687866e-01,1.002091020345687866e-01,1.002091020345687866e-01,1.002091020345687866e-01,1.002091020345687866e-01,1.002091020345687866e-01,1.002091020345687866e-01,1.002091020345687866e-01,1.002091020345687866e-01,1.002091020345687866e-01,1.002091020345687866e-01,1.002091020345687866e-01,1.002091020345687866e-01,1.301189810037612915e-01,1.301189810037612915e-01,1.301189810037612915e-01,1.301189810037612915e-01,1.301189810037612915e-01,1.301189810037612915e-01,1.301189810037612915e-01,1.301189810037612915e-01,1.301189810037612915e-01,1.301189810037612915e-01,-2.321359515190124512e-02,-2.321359515190124512e-02,-2.321359515190124512e-02,-2.321359515190124512e-02
1.027855789288878441e-03,-1.176658272743225098e-02,-1.176658272743225098e-02,-1.176658272743225098e-02,-1.176658272743225098e-02,-1.176658272743225098e-02,-1.176658272743225098e-02,-1.176658272743225098e-02,-1.176658272743225098e-02,-1.176658272743225098e-02,-1.375629752874374390e-02,-1.375629752874374390e-02,-1.375629752874374390e-02,-1.375629752874374390e-02,-1.375629752874374390e-02,-1.375629752874374390e-02,-2.401505410671234131e-02,-2.401505410671234131e-02,-2.401505410671234131e-02,-2.401505410671234131e-02,-1.788197457790374756e-02,-1.788197457790374756e-02,-1.788197457790374756e-02,-1.788197457790374756e-02,-1.788197457790374756e-02,-1.788197457790374756e-02,-1.788197457790374756e-02,-1.788197457790374756e-02,-1.788197457790374756e-02,-1.788197457790374756e-02,-1.788197457790374756e-02,-1.788197457790374756e-02,1.351919636363163590e-04,1.351919636363163590e-04,1.351919636363163590e-04,1.351919636363163590e-04,1.351919636363163590e-04,1.351919636363163590e-04,1.351919636363163590e-04,1.351919636363163590e-04,1.351919636363163590e-04,1.351919636363163590e-04,1.351919636363163590e-04,1.351919636363163590e-04,1.351919636363163590e-04,4.335005208849906921e-02,4.335005208849906921e-02,4.335005208849906921e-02,4.335005208849906921e-02,4.335005208849906921e-02,4.335005208849906921e-02,4.335005208849906921e-02,4.335005208849906921e-02,4.335005208849906921e-02,4.335005208849906921e-02,4.335005208849906921e-02,4.335005208849906921e-02,4.335005208849906921e-02,4.335005208849906921e-02,2.700156066566705704e-03,1.345273852348327637e-01,1.345273852348327637e-01,1.345273852348327637e-01,1.345273852348327637e-01,1.345273852348327637e-01,1.345273852348327637e-01,1.345273852348327637e-01,1.345273852348327637e-01,1.345273852348327637e-01,1.345273852348327637e-01,1.345273852348327637e-01,1.345273852348327637e-01,1.345273852348327637e-01,1.345273852348327637e-01,1.345273852348327637e-01,1.229561939835548401e-01,1.229561939835548401e-01,1.229561939835548401e-01,1.229561939835548401e-01,1.229561939835548401e-01,1.229561939835548401e-01,1.229561939835548401e-01,1.229561939835548401e-01,1.229561939835548401e-01,1.229561939835548401e-01,1.229561939835548401e-01,1.229561939835548401e-01,1.229561939835548401e-01,1.229561939835548401e-01,1.124023273587226868e-01,1.124023273587226868e-01,1.124023273587226868e-01,1.124023273587226868e-01,1.124023273587226868e-01,1.124023273587226868e-01,1.124023273587226868e-01,1.124023273587226868e-01,1.124023273587226868e-01,1.124023273587226868e-01,1.124023273587226868e-01,1.124023273587226868e-01,1.124023273587226868e-01,1.390865296125411987e-01,1.390865296125411987e-01,1.390865296125411987e-01,1.390865296125411987e-01,1.390865296125411987e-01,1.390865296125411987e-01,1.390865296125411987e-01,1.390865296125411987e-01,1.390865296125411987e-01,1.390865296125411987e-01,-1.200012210756540298e-02,-1.200012210756540298e-02,-1.200012210756540298e-02,-1.200012210756540298e-02
-2.901316806674003601e-02,-3.294093534350395203e-02,-3.294093534350395203e-02,-3.294093534350395203e-02,-3.294093534350395203e-02,-3.294093534350395203e-02,-3.294093534350395203e-02,-3.294093534350395203e-02,-3.294093534350395203e-02,-3.294093534350395203e-02,-4.065691307187080383e-02,-4.065691307187080383e-02,-4.065691307187080383e-02,-4.065691307187080383e-02,-4.065691307187080383e-02,-4.065691307187080383e-02,-3.784181550145149231e-02,-3.784181550145149231e-02,-3.784181550145149231e-02,-3.784181550145149231e-02,-3.939324617385864258e-02,-3.939324617385864258e-02,-3.939324617385864258e-02,-3.939324617385864258e-02,-3.939324617385864258e-02,-3.939324617385864258e-02,-3.939324617385864258e-02,-3.939324617385864258e-02,-3.939324617385864258e-02,-3.939324617385864258e-02,-3.939324617385864258e-02,-3.939324617385864258e-02,-2.618565596640110016e-02,-2.618565596640110016e-02,-2.618565596640110016e-02,-2.618565596640110016e-02,-2.618565596640110016e-02,-2.618565596640110016e-02,-2.618565596640110016e-02,-2.618565596640110016e-02,-2.618565596640110016e-02,-2.618565596640110016e-02,-2.618565596640110016e-02,-2.618565596640110016e-02,-2.618565596640110016e-02,2.028693445026874542e-02,2.028693445026874542e-02,2.028693445026874542e-02,2.028693445026874542e-02,2.028693445026874542e-02,2.028693445026874542e-02,2.028693445026874542e-02,2.028693445026874542e-02,2.028693445026874542e-02,2.028693445026874542e-02,2.028693445026874542e-02,2.028693445026874542e-02,2.028693445026874542e-02,2.028693445026874542e-02,-1.622734963893890381e-02,1.174141913652420044e-01,1.174141913652420044e-01,1.174141913652420044e-01,1.174141913652420044e-01,1.174141913652420044e-01,1.174141913652420044e-01,1.174141913652420044e-01,1.174141913652420044e-01,1.174141913652420044e-01,1.174141913652420044e-01,1.174141913652420044e-01,1.174141913652420044e-01,1.174141913652420044e-01,1.174141913652420044e-01,1.174141913652420044e-01,1.082710251212120056e-01,1.082710251212120056e-01,1.082710251212120056e-01,1.082710251212120056e-01,1.082710251212120056e-01,1.082710251212120056e-01,1.082710251212120056e-01,1.082710251212120056e-01,1.082710251212120056e-01,1.082710251212120056e-01,1.082710251212120056e-01,1.082710251212120056e-01,1.082710251212120056e-01,1.082710251212120056e-01,9.620425105094909668e-02,9.620425105094909668e-02,9.620425105094909668e-02,9.620425105094909668e-02,9.620425105094909668e-02,9.620425105094909668e-02,9.620425105094909668e-02,9.620425105094909668e-02,9.620425105094909668e-02,9.620425105094909668e-02,9.620425105094909668e-02,9.620425105094909668e-02,9.620425105094909668e-02,1.187364384531974792e-01,1.187364384531974792e-01,1.187364384531974792e-01,1.187364384531974792e-01,1.187364384531974792e-01,1.187364384531974792e-01,1.187364384531974792e-01,1.187364384531974792e-01,1.187364384531974792e-01,1.187364384531974792e-01,-4.525195807218551636e-02,-4.525195807218551636e-02,-4.525195807218551636e-02,-4.525195807218551636e-02
-6.846612691879272461e-02,-7.844903320074081421e-02,-7.844903320074081421e-02,-7.844903320074081421e-02,-7.844903320074081421e-02,-7.844903320074081421e-02,-7.844903320074081421e-02,-7.844903320074081421e-02,-7.844903320074081421e-02,-7.844903320074081421e-02,-7.762057334184646606e-02,-7.762057334184646606e-02,-7.762057334184646606e-02,-7.762057334184646606e-02,-7.762057334184646606e-02,-7.762057334184646606e-02,-8.216843008995056152e-02,-8.216843008995056152e-02,-8.216843008995056152e-02,-8.216843008995056152e-02,-8.039765059947967529e-02,-8.039765059947967529e-02,-8.039765059947967529e-02,-8.039765059947967529e-02,-8.039765059947967529e-02,-8.039765059947967529e-02,-8.039765059947967529e-02,-8.039765059947967529e-02,-8.039765059947967529e-02,-8.039765059947967529e-02,-8.039765059947967529e-02,-8.039765059947967529e-02,-6.577944010496139526e-02,-6.577944010496139526e-02,-6.577944010496139526e-02,-6.577944010496139526e-02,-6.577944010496139526e-02,-6.577944010496139526e-02,-6.577944010496139526e-02,-6.577944010496139526e-02,-6.577944010496139526e-02,-6.577944010496139526e-02,-6.577944010496139526e-02,-6.577944010496139526e-02,-6.577944010496139526e-02,-2.098353393375873566e-02,-2.098353393375873566e-02,-2.098353393375873566e-02,-2.098353393375873566e-02,-2.098353393375873566e-02,-2.098353393375873566e-02,-2.098353393375873566e-02,-2.098353393375873566e-02,-2.098353393375873566e-02,-2.098353393375873566e-02,-2.098353393375873566e-02,-2.098353393375873566e-02,-2.098353393375873566e-02,-2.098353393375873566e-02,-6.979366391897201538e-02,7.294752448797225952e-02,7.294752448797225952e-02,7.294752448797225952e-02,7.294752448797225952e-02,7.294752448797225952e-02,7.294752448797225952e-02,7.294752448797225952e-02,7.294752448797225952e-02,7.294752448797225952e-02,7.294752448797225952e-02,7.294752448797225952e-02,7.294752448797225952e-02,7.294752448797225952e-02,7.294752448797225952e-02,7.294752448797225952e-02,6.316523998975753784e-02,6.316523998975753784e-02,6.316523998975753784e-02,6.316523998975753784e-02,6.316523998975753784e-02,6.316523998975753784e-02,6.316523998975753784e-02,6.316523998975753784e-02,6.316523998975753784e-02,6.316523998975753784e-02,6.316523998975753784e-02,6.316523998975753784e-02,6.316523998975753784e-02,6.316523998975753784e-02,5.412673205137252808e-02,5.412673205137252808e-02,5.412673205137252808e-02,5.412673205137252808e-02,5.412673205137252808e-02,5.412673205137252808e-02,5.412673205137252808e-02,5.412673205137252808e-02,5.412673205137252808e-02,5.412673205137252808e-02,5.412673205137252808e-02,5.412673205137252808e-02,5.412673205137252808e-02,7.403256744146347046e-02,7.403256744146347046e-02,7.403256744146347046e-02,7.403256744146347046e-02,7.403256744146347046e-02,7.403256744146347046e-02,7.403256744146347046e-02,7.403256744146347046e-02,7.403256744146347046e-02,7.403256744146347046e-02,-1.151064261794090271e-01,-1.151064261794090271e-01,-1.151064261794090271e-01,-1.151064261794090271e-01
-1.332679390907287598e-01,-1.448954343795776367e-01,-1.448954343795776367e-01,-1.448954343795776367e-01,-1.448954343795776367e-01,-1.448954343795776367e-01,-1.448954343795776367e-01,-1.448954343795776367e-01,-1.448954343795776367e-01,-1.448954343795776367e-01,-1.337205916643142700e-01,-1.337205916643142700e-01,-1.337205916643142700e-01,-1.337205916643142700e-01,-1.337205916643142700e-01,-1.337205916643142700e-01,-1.443646252155303955e-01,-1.443646252155303955e-01,-1.443646252155303955e-01,-1.443646252155303955e-01,-1.352648288011550903e-01,-1.352648288011550903e-01,-1.352648288011550903e-01,-1.352648288011550903e-01,-1.352648288011550903e-01,-1.352648288011550903e-01,-1.352648288011550903e-01,-1.352648288011550903e-01,-1.352648288011550903e-01,-1.352648288011550903e-01,-1.352648288011550903e-01,-1.352648288011550903e-01,-1.217348203063011169e-01,-1.217348203063011169e-01,-1.217348203063011169e-01,-1.217348203063011169e-01,-1.217348203063011169e-01,-1.217348203063011169e-01,-1.217348203063011169e-01,-1.217348203063011169e-01,-1.217348203063011169e-01,-1.217348203063011169e-01,-1.217348203063011169e-01,-1.217348203063011169e-01,-1.217348203063011169e-01,-7.734236866235733032e-02,-7.734236866235733032e-02,-7.734236866235733032e-02,-7.734236866235733032e-02,-7.734236866235733032e-02,-7.734236866235733032e-02,-7.734236866235733032e-02,-7.734236866235733032e-02,-7.734236866235733032e-02,-7.734236866235733032e-02,-7.734236866235733032e-02,-7.734236866235733032e-02,-7.734236866235733032e-02,-7.734236866235733032e-02,-1.348546892404556274e-01,3.088360093533992767e-02,3.088360093533992767e-02,3.088360093533992767e-02,3.088360093533992767e-02,3.088360093533992767e-02,3.088360093533992767e-02,3.088360093533992767e-02,3.088360093533992767e-02,3.088360093533992767e-02,3.088360093533992767e-02,3.088360093533992767e-02,3.088360093533992767e-02,3.088360093533992767e-02,3.088360093533992767e-02,3.088360093533992767e-02,2.173110470175743103e-02,2.173110470175743103e-02,2.173110470175743103e-02,2.173110470175743103e-02,2.173110470175743103e-02,2.173110470175743103e-02,2.173110470175743103e-02,2.173110470175743103e-02,2.173110470175743103e-02,2.173110470175743103e-02,2.173110470175743103e-02,2.173110470175743103e-02,2.173110470175743103e-02,2.173110470175743103e-02,1.099989376962184906e-02,1.099989376962184906e-02,1.099989376962184906e-02,1.099989376962184906e-02,1.099989376962184906e-02,1.099989376962184906e-02,1.099989376962184906e-02,1.099989376962184906e-02,1.099989376962184906e-02,1.099989376962184906e-02,1.099989376962184906e-02,1.099989376962184906e-02,1.099989376962184906e-02,3.777365013957023621e-02,3.777365013957023621e-02,3.777365013957023621e-02,3.777365013957023621e-02,3.777365013957023621e-02,3.777365013957023621e-02,3.777365013957023621e-02,3.777365013957023621e-02,3.777365013957023621e-02,3.777365013957023621e-02,-1.593180447816848755e-01,-1.593180447816848755e-01,-1.593180447816848755e-01,-1.593180447816848755e-01
-1.466729044914245605e-01,-1.448339223861694336e-01,-1.448339223861694336e-01,-1.448339223861694336e-01,-1.448339223861694336e-01,-1.448339223861694336e-01,-1.448339223861694336e-01,-1.448339223861694336e-01,-1.448339223861694336e-01,-1.448339223861694336e-01,-1.414261460304260254e-01,-1.414261460304260254e-01,-1.414261460304260254e-01,-1.414261460304260254e-01,-1.414261460304260254e-01,-1.414261460304260254e-01,-1.426570564508438110e-01,-1.426570564508438110e-01,-1.426570564508438110e-01,-1.426570564508438110e-01,-1.406411975622177124e-01,-1.406411975622177124e-01,-1.406411975622177124e-01,-1.406411975622177124e-01,-1.406411975622177124e-01,-1.406411975622177124e-01,-1.406411975622177124e-01,-1.406411975622177124e-01,-1.406411975622177124e-01,-1.406411975622177124e-01,-1.406411975622177124e-01,-1.406411975622177124e-01,-1.338571608066558838e-01,-1.338571608066558838e-01,-1.338571608066558838e-01,-1.338571608066558838e-01,-1.338571608066558838e-01,-1.338571608066558838e-01,-1.338571608066558838e-01,-1.338571608066558838e-01,-1.338571608066558838e-01,-1.338571608066558838e-01,-1.338571608066558838e-01,-1.338571608066558838e-01,-1.338571608066558838e-01,-8.066078275442123413e-02,-8.066078275442123413e-02,-8.066078275442123413e-02,-8.066078275442123413e-02,-8.066078275442123413e-02,-8.066078275442123413e-02,-8.066078275442123413e-02,-8.066078275442123413e-02,-8.066078275442123413e-02,-8.066078275442123413e-02,-8.066078275442123413e-02,-8.066078275442123413e-02,-8.066078275442123413e-02,-8.066078275442123413e-02,-1.396016925573348999e-01,2.679990977048873901e-02,2.679990977048873901e-02,2.679990977048873901e-02,2.679990977048873901e-02,2.679990977048873901e-02,2.679990977048873901e-02,2.679990977048873901e-02,2.679990977048873901e-02,2.679990977048873901e-02,2.679990977048873901e-02,2.679990977048873901e-02,2.679990977048873901e-02,2.679990977048873901e-02,2.679990977048873901e-02,2.679990977048873901e-02,1.772487349808216095e-02,1.772487349808216095e-02,1.772487349808216095e-02,1.772487349808216095e-02,1.772487349808216095e-02,1.772487349808216095e-02,1.772487349808216095e-02,1.772487349808216095e-02,1.772487349808216095e-02,1.772487349808216095e-02,1.772487349808216095e-02,1.772487349808216095e-02,1.772487349808216095e-02,1.772487349808216095e-02,5.319635849446058273e-03,5.319635849446058273e-03,5.319635849446058273e-03,5.319635849446058273e-03,5.319635849446058273e-03,5.319635849446058273e-03,5.319635849446058273e-03,5.319635849446058273e-03,5.319635849446058273e-03,5.319635849446058273e-03,5.319635849446058273e-03,5.319635849446058273e-03,5.319635849446058273e-03,3.543318808078765869e-02,3.543318808078765869e-02,3.543318808078765869e-02,3.543318808078765869e-02,3.543318808078765869e-02,3.543318808078765869e-02,3.543318808078765869e-02,3.543318808078765869e-02,3.543318808078765869e-02,3.543318808078765869e-02,-1.508771479129791260e-01,-1.508771479129791260e-01,-1.508771479129791260e-01,-1.508771479129791260e-01
-1.481172740459442139e-01,-1.457888931035995483e-01,-1.457888931035995483e-01,-1.457888931035995483e-01,-1.457888931035995483e-01,-1.457888931035995483e-01,-1.457888931035995483e-01,-1.457888931035995483e-01,-1.457888931035995483e-01,-1.457888931035995483e-01,-1.397721767425537109e-01,-1.397721767425537109e-01,-1.397721767425537109e-01,-1.397721767425537109e-01,-1.397721767425537109e-01,-1.397721767425537109e-01,-1.383889615535736084e-01,-1.383889615535736084e-01,-1.383889615535736084e-01,-1.383889615535736084e-01,-1.355016231536865234e-01,-1.355016231536865234e-01,-1.355016231536865234e-01,-1.355016231536865234e-01,-1.355016231536865234e-01,-1.355016231536865234e-01,-1.355016231536865234e-01,-1.355016231536865234e-01,-1.355016231536865234e-01,-1.355016231536865234e-01,-1.355016231536865234e-01,-1.355016231536865234e-01,-1.313749849796295166e-01,-1.313749849796295166e-01,-1.313749849796295166e-01,-1.313749849796295166e-01,-1.313749849796295166e-01,-1.313749849796295166e-01,-1.313749849796295166e-01,-1.313749849796295166e-01,-1.313749849796295166e-01,-1.313749849796295166e-01,-1.313749849796295166e-01,-1.313749849796295166e-01,-1.313749849796295166e-01,-7.551212608814239502e-02,-7.551212608814239502e-02,-7.551212608814239502e-02,-7.551212608814239502e-02,-7.551212608814239502e-02,-7.551212608814239502e-02,-7.551212608814239502e-02,-7.551212608814239502e-02,-7.551212608814239502e-02,-7.551212608814239502e-02,-7.551212608814239502e-02,-7.551212608814239502e-02,-7.551212608814239502e-02,-7.551212608814239502e-02,-1.266537308692932129e-01,3.265461325645446777e-02,3.265461325645446777e-02,3.265461325645446777e-02,3.265461325645446777e-02,3.265461325645446777e-02,3.265461325645446777e-02,3.265461325645446777e-02,3.265461325645446777e-02,3.265461325645446777e-02,3.265461325645446777e-02,3.265461325645446777e-02,3.265461325645446777e-02,3.265461325645446777e-02,3.265461325645446777e-02,3.265461325645446777e-02,2.529429085552692413e-02,2.529429085552692413e-02,2.529429085552692413e-02,2.529429085552692413e-02,2.529429085552692413e-02,2.529429085552692413e-02,2.529429085552692413e-02,2.529429085552692413e-02,2.529429085552692413e-02,2.529429085552692413e-02,2.529429085552692413e-02,2.529429085552692413e-02,2.529429085552692413e-02,2.529429085552692413e-02,1.466864440590143204e-02,1.466864440590143204e-02,1.466864440590143204e-02,1.466864440590143204e-02,1.466864440590143204e-02,1.466864440590143204e-02,1.466864440590143204e-02,1.466864440590143204e-02,1.466864440590143204e-02,1.466864440590143204e-02,1.466864440590143204e-02,1.466864440590143204e-02,1.466864440590143204e-02,4.331127926707267761e-02,4.331127926707267761e-02,4.331127926707267761e-02,4.331127926707267761e-02,4.331127926707267761e-02,4.331127926707267761e-02,4.331127926707267761e-02,4.331127926707267761e-02,4.331127926707267761e-02,4.331127926707267761e-02,-1.375452429056167603e-01,-1.375452429056167603e-01,-1.375452429056167603e-01,-1.375452429056167603e-01
-1.494915932416915894e-01,-1.530493497848510742e-01,-1.530493497848510742e-01,-1.530493497848510742e-01,-1.530493497848510742e-01,-1.530493497848510742e-01,-1.530493497848510742e-01,-1.530493497848510742e-01,-1.530493497848510742e-01,-1.530493497848510742e-01,-1.473856717348098755e-01,-1.473856717348098755e-01,-1.473856717348098755e-01,-1.473856717348098755e-01,-1.473856717348098755e-01,-1.473856717348098755e-01,-1.490243971347808838e-01,-1.490243971347808838e-01,-1.490243971347808838e-01,-1.490243971347808838e-01,-1.470883637666702271e-01,-1.470883637666702271e-01,-1.470883637666702271e-01,-1.470883637666702271e-01,-1.470883637666702271e-01,-1.470883637666702271e-01,-1.470883637666702271e-01,-1.470883637666702271e-01,-1.470883637666702271e-01,-1.470883637666702271e-01,-1.470883637666702271e-01,-1.470883637666702271e-01,-1.394898742437362671e-01,-1.394898742437362671e-01,-1.394898742437362671e-01,-1.394898742437362671e-01,-1.394898742437362671e-01,-1.394898742437362671e-01,-1.394898742437362671e-01,-1.394898742437362671e-01,-1.394898742437362671e-01,-1.394898742437362671e-01,-1.394898742437362671e-01,-1.394898742437362671e-01,-1.394898742437362671e-01,-8.095030486583709717e-02,-8.095030486583709717e-02,-8.095030486583709717e-02,-8.095030486583709717e-02,-8.095030486583709717e-02,-8.095030486583709717e-02,-8.095030486583709717e-02,-8.095030486583709717e-02,-8.095030486583709717e-02,-8.095030486583709717e-02,-8.095030486583709717e-02,-8.095030486583709717e-02,-8.095030486583709717e-02,-8.095030486583709717e-02,-1.343223452568054199e-01,2.847268618643283844e-02,2.847268618643283844e-02,2.847268618643283844e-02,2.847268618643283844e-02,2.847268618643283844e-02,2.847268618643283844e-02,2.847268618643283844e-02,2.847268618643283844e-02,2.847268618643283844e-02,2.847268618643283844e-02,2.847268618643283844e-02,2.847268618643283844e-02,2.847268618643283844e-02,2.847268618643283844e-02,2.847268618643283844e-02,2.263236232101917267e-02,2.263236232101917267e-02,2.263236232101917267e-02,2.263236232101917267e-02,2.263236232101917267e-02,2.263236232101917267e-02,2.263236232101917267e-02,2.263236232101917267e-02,2.263236232101917267e-02,2.263236232101917267e-02,2.263236232101917267e-02,2.263236232101917267e-02,2.263236232101917267e-02,2.263236232101917267e-02,1.049116905778646469e-02,1.049116905778646469e-02,1.049116905778646469e-02,1.049116905778646469e-02,1.049116905778646469e-02,1.049116905778646469e-02,1.049116905778646469e-02,1.049116905778646469e-02,1.049116905778646469e-02,1.049116905778646469e-02,1.049116905778646469e-02,1.049116905778646469e-02,1.049116905778646469e-02,3.981635719537734985e-02,3.981635719537734985e-02,3.981635719537734985e-02,3.981635719537734985e-02,3.981635719537734985e-02,3.981635719537734985e-02,3.981635719537734985e-02,3.981635719537734985e-02,3.981635719537734985e-02,3.981635719537734985e-02,-1.351137608289718628e-01,-1.351137608289718628e-01,-1.351137608289718628e-01,-1.351137608289718628e-01
-1.303905248641967773e-01,-1.371078193187713623e-01,-1.371078193187713623e-01,-1.371078193187713623e-01,-1.371078193187713623e-01,-1.371078193187713623e-01,-1.371078193187713623e-01,-1.371078193187713623e-01,-1.371078193187713623e-01,-1.371078193187713623e-01,-1.332546621561050415e-01,-1.332546621561050415e-01,-1.332546621561050415e-01,-1.332546621561050415e-01,-1.332546621561050415e-01,-1.332546621561050415e-01,-1.341626346111297607e-01,-1.341626346111297607e-01,-1.341626346111297607e-01,-1.341626346111297607e-01,-1.340555250644683838e-01,-1.340555250644683838e-01,-1.340555250644683838e-01,-1.340555250644683838e-01,-1.340555250644683838e-01,-1.340555250644683838e-01,-1.340555250644683838e-01,-1.340555250644683838e-01,-1.340555250644683838e-01,-1.340555250644683838e-01,-1.340555250644683838e-01,-1.340555250644683838e-01,-1.232196390628814697e-01,-1.232196390628814697e-01,-1.232196390628814697e-01,-1.232196390628814697e-01,-1.232196390628814697e-01,-1.232196390628814697e-01,-1.232196390628814697e-01,-1.232196390628814697e-01,-1.232196390628814697e-01,-1.232196390628814697e-01,-1.232196390628814697e-01,-1.232196390628814697e-01,-1.232196390628814697e-01,-6.635920703411102295e-02,-6.635920703411102295e-02,-6.635920703411102295e-02,-6.635920703411102295e-02,-6.635920703411102295e-02,-6.635920703411102295e-02,-6.635920703411102295e-02,-6.635920703411102295e-02,-6.635920703411102295e-02,-6.635920703411102295e-02,-6.635920703411102295e-02,-6.635920703411102295e-02,-6.635920703411102295e-02,-6.635920703411102295e-02,-1.149157658219337463e-01,3.777457773685455322e-02,3.777457773685455322e-02,3.777457773685455322e-02,3.777457773685455322e-02,3.777457773685455322e-02,3.777457773685455322e-02,3.777457773685455322e-02,3.777457773685455322e-02,3.777457773685455322e-02,3.777457773685455322e-02,3.777457773685455322e-02,3.777457773685455322e-02,3.777457773685455322e-02,3.777457773685455322e-02,3.777457773685455322e-02,3.047833405435085297e-02,3.047833405435085297e-02,3.047833405435085297e-02,3.047833405435085297e-02,3.047833405435085297e-02,3.047833405435085297e-02,3.047833405435085297e-02,3.047833405435085297e-02,3.047833405435085297e-02,3.047833405435085297e-02,3.047833405435085297e-02,3.047833405435085297e-02,3.047833405435085297e-02,3.047833405435085297e-02,1.985063217580318451e-02,1.985063217580318451e-02,1.985063217580318451e-02,1.985063217580318451e-02,1.985063217580318451e-02,1.985063217580318451e-02,1.985063217580318451e-02,1.985063217580318451e-02,1.985063217580318451e-02,1.985063217580318451e-02,1.985063217580318451e-02,1.985063217580318451e-02,1.985063217580318451e-02,4.860154911875724792e-02,4.860154911875724792e-02,4.860154911875724792e-02,4.860154911875724792e-02,4.860154911875724792e-02,4.860154911875724792e-02,4.860154911875724792e-02,4.860154911875724792e-02,4.860154911875724792e-02,4.860154911875724792e-02,-1.210607811808586121e-01,-1.210607811808586121e-01,-1.210607811808586121e-01,-1.210607811808586121e-01
-6.434617936611175537e-02,-7.611409574747085571e-02,-7.611409574747085571e-02,-7.611409574747085571e-02,-7.611409574747085571e-02,-7.611409574747085571e-02,-7.611409574747085571e-02,-7.611409574747085571e-02,-7.611409574747085571e-02,-7.611409574747085571e-02,-7.560715824365615845e-02,-7.560715824365615845e-02,-7.560715824365615845e-02,-7.560715824365615845e-02,-7.560715824365615845e-02,-7.560715824365615845e-02,-8.004631847143173218e-02,-8.004631847143173218e-02,-8.004631847143173218e-02,-8.004631847143173218e-02,-8.006285876035690308e-02,-8.006285876035690308e-02,-8.006285876035690308e-02,-8.006285876035690308e-02,-8.006285876035690308e-02,-8.006285876035690308e-02,-8.006285876035690308e-02,-8.006285876035690308e-02,-8.006285876035690308e-02,-8.006285876035690308e-02,-8.006285876035690308e-02,-8.006285876035690308e-02,-6.529666483402252197e-02,-6.529666483402252197e-02,-6.529666483402252197e-02,-6.529666483402252197e-02,-6.529666483402252197e-02,-6.529666483402252197e-02,-6.529666483402252197e-02,-6.529666483402252197e-02,-6.529666483402252197e-02,-6.529666483402252197e-02,-6.529666483402252197e-02,-6.529666483402252197e-02,-6.529666483402252197e-02,-1.352812163531780243e-02,-1.352812163531780243e-02,-1.352812163531780243e-02,-1.352812163531780243e-02,-1.352812163531780243e-02,-1.352812163531780243e-02,-1.352812163531780243e-02,-1.352812163531780243e-02,-1.352812163531780243e-02,-1.352812163531780243e-02,-1.352812163531780243e-02,-1.352812163531780243e-02,-1.352812163531780243e-02,-1.352812163531780243e-02,-6.158943101763725281e-02,8.187054097652435303e-02,8.187054097652435303e-02,8.187054097652435303e-02,8.187054097652435303e-02,8.187054097652435303e-02,8.187054097652435303e-02,8.187054097652435303e-02,8.187054097652435303e-02,8.187054097652435303e-02,8.187054097652435303e-02,8.187054097652435303e-02,8.187054097652435303e-02,8.187054097652435303e-02,8.187054097652435303e-02,8.187054097652435303e-02,7.247535884380340576e-02,7.247535884380340576e-02,7.247535884380340576e-02,7.247535884380340576e-02,7.247535884380340576e-02,7.247535884380340576e-02,7.247535884380340576e-02,7.247535884380340576e-02,7.247535884380340576e-02,7.247535884380340576e-02,7.247535884380340576e-02,7.247535884380340576e-02,7.247535884380340576e-02,7.247535884380340576e-02,6.413446366786956787e-02,6.413446366786956787e-02,6.413446366786956787e-02,6.413446366786956787e-02,6.413446366786956787e-02,6.413446366786956787e-02,6.413446366786956787e-02,6.413446366786956787e-02,6.413446366786956787e-02,6.413446366786956787e-02,6.413446366786956787e-02,6.413446366786956787e-02,6.413446366786956787e-02,9.184797108173370361e-02,9.184797108173370361e-02,9.184797108173370361e-02,9.184797108173370361e-02,9.184797108173370361e-02,9.184797108173370361e-02,9.184797108173370361e-02,9.184797108173370361e-02,9.184797108173370361e-02,9.184797108173370361e-02,-5.888656526803970337e-02,-5.888656526803970337e-02,-5.888656526803970337e-02,-5.888656526803970337e-02
-2.900570072233676910e-02,-5.444138124585151672e-02,-5.444138124585151672e-02,-5.444138124585151672e-02,-5.444138124585151672e-02,-5.444138124585151672e-02,-5.444138124585151672e-02,-5.444138124585151672e-02,-5.444138124585151672e-02,-5.444138124585151672e-02,-4.792281985282897949e-02,-4.792281985282897949e-02,-4.792281985282897949e-02,-4.792281985282897949e-02,-4.792281985282897949e-02,-4.792281985282897949e-02,-6.776542961597442627e-02,-6.776542961597442627e-02,-6.776542961597442627e-02,-6.776542961597442627e-02,-6.294094771146774292e-02,-6.294094771146774292e-02,-6.294094771146774292e-02,-6.294094771146774292e-02,-6.294094771146774292e-02,-6.294094771146774292e-02,-6.294094771146774292e-02,-6.294094771146774292e-02,-6.294094771146774292e-02,-6.294094771146774292e-02,-6.294094771146774292e-02,-6.294094771146774292e-02,-4.491464793682098389e-02,-4.491464793682098389e-02,-4.491464793682098389e-02,-4.491464793682098389e-02,-4.491464793682098389e-02,-4.491464793682098389e-02,-4.491464793682098389e-02,-4.491464793682098389e-02,-4.491464793682098389e-02,-4.491464793682098389e-02,-4.491464793682098389e-02,-4.491464793682098389e-02,-4.491464793682098389e-02,1.905468059703707695e-03,1.905468059703707695e-03,1.905468059703707695e-03,1.905468059703707695e-03,1.905468059703707695e-03,1.905468059703707695e-03,1.905468059703707695e-03,1.905468059703707695e-03,1.905468059703707695e-03,1.905468059703707695e-03,1.905468059703707695e-03,1.905468059703707695e-03,1.905468059703707695e-03,1.905468059703707695e-03,-5.130769312381744385e-02,8.934406191110610962e-02,8.934406191110610962e-02,8.934406191110610962e-02,8.934406191110610962e-02,8.934406191110610962e-02,8.934406191110610962e-02,8.934406191110610962e-02,8.934406191110610962e-02,8.934406191110610962e-02,8.934406191110610962e-02,8.934406191110610962e-02,8.934406191110610962e-02,8.934406191110610962e-02,8.934406191110610962e-02,8.934406191110610962e-02,7.777561247348785400e-02,7.777561247348785400e-02,7.777561247348785400e-02,7.777561247348785400e-02,7.777561247348785400e-02,7.777561247348785400e-02,7.777561247348785400e-02,7.777561247348785400e-02,7.777561247348785400e-02,7.777561247348785400e-02,7.777561247348785400e-02,7.777561247348785400e-02,7.777561247348785400e-02,7.777561247348785400e-02,6.950607895851135254e-02,6.950607895851135254e-02,6.950607895851135254e-02,6.950607895851135254e-02,6.950607895851135254e-02,6.950607895851135254e-02,6.950607895851135254e-02,6.950607895851135254e-02,6.950607895851135254e-02,6.950607895851135254e-02,6.950607895851135254e-02,6.950607895851135254e-02,6.950607895851135254e-02,9.606293588876724243e-02,9.606293588876724243e-02,9.606293588876724243e-02,9.606293588876724243e-02,9.606293588876724243e-02,9.606293588876724243e-02,9.606293588876724243e-02,9.606293588876724243e-02,9.606293588876724243e-02,9.606293588876724243e-02,-6.578379869461059570e-02,-6.578379869461059570e-02,-6.578379869461059570e-02,-6.578379869461059570e-02
4.951874259859323502e-03,-2.602658234536647797e-02,-2.602658234536647797e-02,-2.602658234536647797e-02,-2.602658234536647797e-02,-2.602658234536647797e-02,-2.602658234536647797e-02,-2.602658234536647797e-02,-2.602658234536647797e-02,-2.602658234536647797e-02,-1.392800640314817429e-02,-1.392800640314817429e-02,-1.392800640314817429e-02,-1.392800640314817429e-02,-1.392800640314817429e-02,-1.392800640314817429e-02,-4.027785360813140869e-02,-4.027785360813140869e-02,-4.027785360813140869e-02,-4.027785360813140869e-02,-3.201888874173164368e-02,-3.201888874173164368e-02,-3.201888874173164368e-02,-3.201888874173164368e-02,-3.201888874173164368e-02,-3.201888874173164368e-02,-3.201888874173164368e-02,-3.201888874173164368e-02,-3.201888874173164368e-02,-3.201888874173164368e-02,-3.201888874173164368e-02,-3.201888874173164368e-02,-1.210534945130348206e-02,-1.210534945130348206e-02,-1.210534945130348206e-02,-1.210534945130348206e-02,-1.210534945130348206e-02,-1.210534945130348206e-02,-1.210534945130348206e-02,-1.210534945130348206e-02,-1.210534945130348206e-02,-1.210534945130348206e-02,-1.210534945130348206e-02,-1.210534945130348206e-02,-1.210534945130348206e-02,2.400954626500606537e-02,2.400954626500606537e-02,2.400954626500606537e-02,2.400954626500606537e-02,2.400954626500606537e-02,2.400954626500606537e-02,2.400954626500606537e-02,2.400954626500606537e-02,2.400954626500606537e-02,2.400954626500606537e-02,2.400954626500606537e-02,2.400954626500606537e-02,2.400954626500606537e-02,2.400954626500606537e-02,-2.791947126388549805e-02,1.001926362514495850e-01,1.001926362514495850e-01,1.001926362514495850e-01,1.001926362514495850e-01,1.001926362514495850e-01,1.001926362514495850e-01,1.001926362514495850e-01,1.001926362514495850e-01,1.001926362514495850e-01,1.001926362514495850e-01,1.001926362514495850e-01,1.001926362514495850e-01,1.001926362514495850e-01,1.001926362514495850e-01,1.001926362514495850e-01,8.836159855127334595e-02,8.836159855127334595e-02,8.836159855127334595e-02,8.836159855127334595e-02,8.836159855127334595e-02,8.836159855127334595e-02,8.836159855127334595e-02,8.836159855127334595e-02,8.836159855127334595e-02,8.836159855127334595e-02,8.836159855127334595e-02,8.836159855127334595e-02,8.836159855127334595e-02,8.836159855127334595e-02,7.930545508861541748e-02,7.930545508861541748e-02,7.930545508861541748e-02,7.930545508861541748e-02,7.930545508861541748e-02,7.930545508861541748e-02,7.930545508861541748e-02,7.930545508861541748e-02,7.930545508861541748e-02,7.930545508861541748e-02,7.930545508861541748e-02,7.930545508861541748e-02,7.930545508861541748e-02,1.076986342668533325e-01,1.076986342668533325e-01,1.076986342668533325e-01,1.076986342668533325e-01,1.076986342668533325e-01,1.076986342668533325e-01,1.076986342668533325e-01,1.076986342668533325e-01,1.076986342668533325e-01,1.076986342668533325e-01,-5.248134955763816833e-02,-5.248134955763816833e-02,-5.248134955763816833e-02,-5.248134955763816833e-02
1.559777371585369110e-02,-7.544115185737609863e-03,-7.544115185737609863e-03,-7.544115185737609863e-03,-7.544115185737609863e-03,-7.544115185737609863e-03,-7.544115185737609863e-03,-7.544115185737609863e-03,-7.544115185737609863e-03,-7.544115185737609863e-03,5.049446597695350647e-03,5.049446597695350647e-03,5.049446597695350647e-03,5.049446597695350647e-03,5.049446597695350647e-03,5.049446597695350647e-03,-2.256919443607330322e-02,-2.256919443607330322e-02,-2.256919443607330322e-02,-2.256919443607330322e-02,-1.589685119688510895e-02,-1.589685119688510895e-02,-1.589685119688510895e-02,-1.589685119688510895e-02,-1.589685119688510895e-02,-1.589685119688510895e-02,-1.589685119688510895e-02,-1.589685119688510895e-02,-1.589685119688510895e-02,-1.589685119688510895e-02,-1.589685119688510895e-02,-1.589685119688510895e-02,-1.438951119780540466e-03,-1.438951119780540466e-03,-1.438951119780540466e-03,-1.438951119780540466e-03,-1.438951119780540466e-03,-1.438951119780540466e-03,-1.438951119780540466e-03,-1.438951119780540466e-03,-1.438951119780540466e-03,-1.438951119780540466e-03,-1.438951119780540466e-03,-1.438951119780540466e-03,-1.438951119780540466e-03,3.379974514245986938e-02,3.379974514245986938e-02,3.379974514245986938e-02,3.379974514245986938e-02,3.379974514245986938e-02,3.379974514245986938e-02,3.379974514245986938e-02,3.379974514245986938e-02,3.379974514245986938e-02,3.379974514245986938e-02,3.379974514245986938e-02,3.379974514245986938e-02,3.379974514245986938e-02,3.379974514245986938e-02,-1.278307382017374039e-02,1.130614280700683594e-01,1.130614280700683594e-01,1.130614280700683594e-01,1.130614280700683594e-01,1.130614280700683594e-01,1.130614280700683594e-01,1.130614280700683594e-01,1.130614280700683594e-01,1.130614280700683594e-01,1.130614280700683594e-01,1.130614280700683594e-01,1.130614280700683594e-01,1.130614280700683594e-01,1.130614280700683594e-01,1.130614280700683594e-01,1.018631607294082642e-01,1.018631607294082642e-01,1.018631607294082642e-01,1.018631607294082642e-01,1.018631607294082642e-01,1.018631607294082642e-01,1.018631607294082642e-01,1.018631607294082642e-01,1.018631607294082642e-01,1.018631607294082642e-01,1.018631607294082642e-01,1.018631607294082642e-01,1.018631607294082642e-01,1.018631607294082642e-01,9.322334825992584229e-02,9.322334825992584229e-02,9.322334825992584229e-02,9.322334825992584229e-02,9.322334825992584229e-02,9.322334825992584229e-02,9.322334825992584229e-02,9.322334825992584229e-02,9.322334825992584229e-02,9.322334825992584229e-02,9.322334825992584229e-02,9.322334825992584229e-02,9.322334825992584229e-02,1.238879933953285217e-01,1.238879933953285217e-01,1.238879933953285217e-01,1.238879933953285217e-01,1.238879933953285217e-01,1.238879933953285217e-01,1.238879933953285217e-01,1.238879933953285217e-01,1.238879933953285217e-01,1.238879933953285217e-01,-2.116756141185760498e-02,-2.116756141185760498e-02,-2.116756141185760498e-02,-2.116756141185760498e-02
-8.744976483285427094e-03,-3.239113464951515198e-02,-3.239113464951515198e-02,-3.239113464951515198e-02,-3.239113464951515198e-02,-3.239113464951515198e-02,-3.239113464951515198e-02,-3.239113464951515198e-02,-3.239113464951515198e-02,-3.239113464951515198e-02,-1.719247363507747650e-02,-1.719247363507747650e-02,-1.719247363507747650e-02,-1.719247363507747650e-02,-1.719247363507747650e-02,-1.719247363507747650e-02,-4.632387310266494751e-02,-4.632387310266494751e-02,-4.632387310266494751e-02,-4.632387310266494751e-02,-3.835689648985862732e-02,-3.835689648985862732e-02,-3.835689648985862732e-02,-3.835689648985862732e-02,-3.835689648985862732e-02,-3.835689648985862732e-02,-3.835689648985862732e-02,-3.835689648985862732e-02,-3.835689648985862732e-02,-3.835689648985862732e-02,-3.835689648985862732e-02,-3.835689648985862732e-02,-2.570815198123455048e-02,-2.570815198123455048e-02,-2.570815198123455048e-02,-2.570815198123455048e-02,-2.570815198123455048e-02,-2.570815198123455048e-02,-2.570815198123455048e-02,-2.570815198123455048e-02,-2.570815198123455048e-02,-2.570815198123455048e-02,-2.570815198123455048e-02,-2.570815198123455048e-02,-2.570815198123455048e-02,1.380734890699386597e-02,1.380734890699386597e-02,1.380734890699386597e-02,1.380734890699386597e-02,1.380734890699386597e-02,1.380734890699386597e-02,1.380734890699386597e-02,1.380734890699386597e-02,1.380734890699386597e-02,1.380734890699386597e-02,1.380734890699386597e-02,1.380734890699386597e-02,1.380734890699386597e-02,1.380734890699386597e-02,-3.278243541717529297e-02,9.909994155168533325e-02,9.909994155168533325e-02,9.909994155168533325e-02,9.909994155168533325e-02,9.909994155168533325e-02,9.909994155168533325e-02,9.909994155168533325e-02,9.909994155168533325e-02,9.909994155168533325e-02,9.909994155168533325e-02,9.909994155168533325e-02,9.909994155168533325e-02,9.909994155168533325e-02,9.909994155168533325e-02,9.909994155168533325e-02,9.008831530809402466e-02,9.008831530809402466e-02,9.008831530809402466e-02,9.008831530809402466e-02,9.008831530809402466e-02,9.008831530809402466e-02,9.008831530809402466e-02,9.008831530809402466e-02,9.008831530809402466e-02,9.008831530809402466e-02,9.008831530809402466e-02,9.008831530809402466e-02,9.008831530809402466e-02,9.008831530809402466e-02,7.867245376110076904e-02,7.867245376110076904e-02,7.867245376110076904e-02,7.867245376110076904e-02,7.867245376110076904e-02,7.867245376110076904e-02,7.867245376110076904e-02,7.867245376110076904e-02,7.867245376110076904e-02,7.867245376110076904e-02,7.867245376110076904e-02,7.867245376110076904e-02,7.867245376110076904e-02,1.076594591140747070e-01,1.076594591140747070e-01,1.076594591140747070e-01,1.076594591140747070e-01,1.076594591140747070e-01,1.076594591140747070e-01,1.076594591140747070e-01,1.076594591140747070e-01,1.076594591140747070e-01,1.076594591140747070e-01,-4.101500660181045532e-02,-4.101500660181045532e-02,-4.101500660181045532e-02,-4.101500660181045532e-02
-5.381131917238235474e-02,-6.652183830738067627e-02,-6.652183830738067627e-02,-6.652183830738067627e-02,-6.652183830738067627e-02,-6.652183830738067627e-02,-6.652183830738067627e-02,-6.652183830738067627e-02,-6.652183830738067627e-02,-6.652183830738067627e-02,-4.915295168757438660e-02,-4.915295168757438660e-02,-4.915295168757438660e-02,-4.915295168757438660e-02,-4.915295168757438660e-02,-4.915295168757438660e-02,-6.970557570457458496e-02,-6.970557570457458496e-02,-6.970557570457458496e-02,-6.970557570457458496e-02,-6.151391193270683289e-02,-6.151391193270683289e-02,-6.151391193270683289e-02,-6.151391193270683289e-02,-6.151391193270683289e-02,-6.151391193270683289e-02,-6.151391193270683289e-02,-6.151391193270683289e-02,-6.151391193270683289e-02,-6.151391193270683289e-02,-6.151391193270683289e-02,-6.151391193270683289e-02,-4.557007178664207458e-02,-4.557007178664207458e-02,-4.557007178664207458e-02,-4.557007178664207458e-02,-4.557007178664207458e-02,-4.557007178664207458e-02,-4.557007178664207458e-02,-4.557007178664207458e-02,-4.557007178664207458e-02,-4.557007178664207458e-02,-4.557007178664207458e-02,-4.557007178664207458e-02,-4.557007178664207458e-02,-5.995734594762325287e-03,-5.995734594762325287e-03,-5.995734594762325287e-03,-5.995734594762325287e-03,-5.995734594762325287e-03,-5.995734594762325287e-03,-5.995734594762325287e-03,-5.995734594762325287e-03,-5.995734594762325287e-03,-5.995734594762325287e-03,-5.995734594762325287e-03,-5.995734594762325287e-03,-5.995734594762325287e-03,-5.995734594762325287e-03,-4.742275923490524292e-02,8.274659514427185059e-02,8.274659514427185059e-02,8.274659514427185059e-02,8.274659514427185059e-02,8.274659514427185059e-02,8.274659514427185059e-02,8.274659514427185059e-02,8.274659514427185059e-02,8.274659514427185059e-02,8.274659514427185059e-02,8.274659514427185059e-02,8.274659514427185059e-02,8.274659514427185059e-02,8.274659514427185059e-02,8.274659514427185059e-02,7.494681328535079956e-02,7.494681328535079956e-02,7.494681328535079956e-02,7.494681328535079956e-02,7.494681328535079956e-02,7.494681328535079956e-02,7.494681328535079956e-02,7.494681328535079956e-02,7.494681328535079956e-02,7.494681328535079956e-02,7.494681328535079956e-02,7.494681328535079956e-02,7.494681328535079956e-02,7.494681328535079956e-02,6.725021451711654663e-02,6.725021451711654663e-02,6.725021451711654663e-02,6.725021451711654663e-02,6.725021451711654663e-02,6.725021451711654663e-02,6.725021451711654663e-02,6.725021451711654663e-02,6.725021451711654663e-02,6.725021451711654663e-02,6.725021451711654663e-02,6.725021451711654663e-02,6.725021451711654663e-02,8.869235217571258545e-02,8.869235217571258545e-02,8.869235217571258545e-02,8.869235217571258545e-02,8.869235217571258545e-02,8.869235217571258545e-02,8.869235217571258545e-02,8.869235217571258545e-02,8.869235217571258545e-02,8.869235217571258545e-02,-7.024171203374862671e-02,-7.024171203374862671e-02,-7.024171203374862671e-02,-7.024171203374862671e-02
-1.228473782539367676e-01,-1.280231773853302002e-01,-1.280231773853302002e-01,-1.280231773853302002e-01,-1.280231773853302002e-01,-1.280231773853302002e-01,-1.280231773853302002e-01,-1.280231773853302002e-01,-1.280231773853302002e-01,-1.280231773853302002e-01,-1.071219742298126221e-01,-1.071219742298126221e-01,-1.071219742298126221e-01,-1.071219742298126221e-01,-1.071219742298126221e-01,-1.071219742298126221e-01,-1.226202100515365601e-01,-1.226202100515365601e-01,-1.226202100515365601e-01,-1.226202100515365601e-01,-1.066375076770782471e-01,-1.066375076770782471e-01,-1.066375076770782471e-01,-1.066375076770782471e-01,-1.066375076770782471e-01,-1.066375076770782471e-01,-1.066375076770782471e-01,-1.066375076770782471e-01,-1.066375076770782471e-01,-1.066375076770782471e-01,-1.066375076770782471e-01,-1.066375076770782471e-01,-8.848529309034347534e-02,-8.848529309034347534e-02,-8.848529309034347534e-02,-8.848529309034347534e-02,-8.848529309034347534e-02,-8.848529309034347534e-02,-8.848529309034347534e-02,-8.848529309034347534e-02,-8.848529309034347534e-02,-8.848529309034347534e-02,-8.848529309034347534e-02,-8.848529309034347534e-02,-8.848529309034347534e-02,-5.755060538649559021e-02,-5.755060538649559021e-02,-5.755060538649559021e-02,-5.755060538649559021e-02,-5.755060538649559021e-02,-5.755060538649559021e-02,-5.755060538649559021e-02,-5.755060538649559021e-02,-5.755060538649559021e-02,-5.755060538649559021e-02,-5.755060538649559021e-02,-5.755060538649559021e-02,-5.755060538649559021e-02,-5.755060538649559021e-02,-1.005097404122352600e-01,3.531645238399505615e-02,3.531645238399505615e-02,3.531645238399505615e-02,3.531645238399505615e-02,3.531645238399505615e-02,3.531645238399505615e-02,3.531645238399505615e-02,3.531645238399505615e-02,3.531645238399505615e-02,3.531645238399505615e-02,3.531645238399505615e-02,3.531645238399505615e-02,3.531645238399505615e-02,3.531645238399505615e-02,3.531645238399505615e-02,2.797004394233226776e-02,2.797004394233226776e-02,2.797004394233226776e-02,2.797004394233226776e-02,2.797004394233226776e-02,2.797004394233226776e-02,2.797004394233226776e-02,2.797004394233226776e-02,2.797004394233226776e-02,2.797004394233226776e-02,2.797004394233226776e-02,2.797004394233226776e-02,2.797004394233226776e-02,2.797004394233226776e-02,2.298877388238906860e-02,2.298877388238906860e-02,2.298877388238906860e-02,2.298877388238906860e-02,2.298877388238906860e-02,2.298877388238906860e-02,2.298877388238906860e-02,2.298877388238906860e-02,2.298877388238906860e-02,2.298877388238906860e-02,2.298877388238906860e-02,2.298877388238906860e-02,2.298877388238906860e-02,4.253299906849861145e-02,4.253299906849861145e-02,4.253299906849861145e-02,4.253299906849861145e-02,4.253299906849861145e-02,4.253299906849861145e-02,4.253299906849861145e-02,4.253299906849861145e-02,4.253299906849861145e-02,4.253299906849861145e-02,-1.365041285753250122e-01,-1.365041285753250122e-01,-1.365041285753250122e-01,-1.365041285753250122e-01
-1.958600133657455444e-01,-1.936817914247512817e-01,-1.936817914247512817e-01,-1.936817914247512817e-01,-1.936817914247512817e-01,-1.936817914247512817e-01,-1.936817914247512817e-01,-1.936817914247512817e-01,-1.936817914247512817e-01,-1.936817914247512817e-01,-1.755108982324600220e-01,-1.755108982324600220e-01,-1.755108982324600220e-01,-1.755108982324600220e-01,-1.755108982324600220e-01,-1.755108982324600220e-01,-1.787237673997879028e-01,-1.787237673997879028e-01,-1.787237673997879028e-01,-1.787237673997879028e-01,-1.608336865901947021e-01,-1.608336865901947021e-01,-1.608336865901947021e-01,-1.608336865901947021e-01,-1.608336865901947021e-01,-1.608336865901947021e-01,-1.608336865901947021e-01,-1.608336865901947021e-01,-1.608336865901947021e-01,-1.608336865901947021e-01,-1.608336865901947021e-01,-1.608336865901947021e-01,-1.417991369962692261e-01,-1.417991369962692261e-01,-1.417991369962692261e-01,-1.417991369962692261e-01,-1.417991369962692261e-01,-1.417991369962692261e-01,-1.417991369962692261e-01,-1.417991369962692261e-01,-1.417991369962692261e-01,-1.417991369962692261e-01,-1.417991369962692261e-01,-1.417991369962692261e-01,-1.417991369962692261e-01,-1.156043335795402527e-01,-1.156043335795402527e-01,-1.156043335795402527e-01,-1.156043335795402527e-01,-1.156043335795402527e-01,-1.156043335795402527e-01,-1.156043335795402527e-01,-1.156043335795402527e-01,-1.156043335795402527e-01,-1.156043335795402527e-01,-1.156043335795402527e-01,-1.156043335795402527e-01,-1.156043335795402527e-01,-1.156043335795402527e-01,-1.632753908634185791e-01,-1.272556837648153305e-02,-1.272556837648153305e-02,-1.272556837648153305e-02,-1.272556837648153305e-02,-1.272556837648153305e-02,-1.272556837648153305e-02,-1.272556837648153305e-02,-1.272556837648153305e-02,-1.272556837648153305e-02,-1.272556837648153305e-02,-1.272556837648153305e-02,-1.272556837648153305e-02,-1.272556837648153305e-02,-1.272556837648153305e-02,-1.272556837648153305e-02,-1.912963390350341797e-02,-1.912963390350341797e-02,-1.912963390350341797e-02,-1.912963390350341797e-02,-1.912963390350341797e-02,-1.912963390350341797e-02,-1.912963390350341797e-02,-1.912963390350341797e-02,-1.912963390350341797e-02,-1.912963390350341797e-02,-1.912963390350341797e-02,-1.912963390350341797e-02,-1.912963390350341797e-02,-1.912963390350341797e-02,-2.306597493588924408e-02,-2.306597493588924408e-02,-2.306597493588924408e-02,-2.306597493588924408e-02,-2.306597493588924408e-02,-2.306597493588924408e-02,-2.306597493588924408e-02,-2.306597493588924408e-02,-2.306597493588924408e-02,-2.306597493588924408e-02,-2.306597493588924408e-02,-2.306597493588924408e-02,-2.306597493588924408e-02,-8.122289553284645081e-03,-8.122289553284645081e-03,-8.122289553284645081e-03,-8.122289553284645081e-03,-8.122289553284645081e-03,-8.122289553284645081e-03,-8.122289553284645081e-03,-8.122289553284645081e-03,-8.122289553284645081e-03,-8.122289553284645081e-03,-1.952297687530517578e-01,-1.952297687530517578e-01,-1.952297687530517578e-01,-1.952297687530517578e-01
-2.809962630271911621e-01,-2.732523381710052490e-01,-2.732523381710052490e-01,-2.732523381710052490e-01,-2.732523381710052490e-01,-2.732523381710052490e-01,-2.732523381710052490e-01,-2.732523381710052490e-01,-2.732523381710052490e-01,-2.732523381710052490e-01,-2.590183615684509277e-01,-2.590183615684509277e-01,-2.590183615684509277e-01,-2.590183615684509277e-01,-2.590183615684509277e-01,-2.590183615684509277e-01,-2.638361454010009766e-01,-2.638361454010009766e-01,-2.638361454010009766e-01,-2.638361454010009766e-01,-2.452642172574996948e-01,-2.452642172574996948e-01,-2.452642172574996948e-01,-2.452642172574996948e-01,-2.452642172574996948e-01,-2.452642172574996948e-01,-2.452642172574996948e-01,-2.452642172574996948e-01,-2.452642172574996948e-01,-2.452642172574996948e-01,-2.452642172574996948e-01,-2.452642172574996948e-01,-2.304927408695220947e-01,-2.304927408695220947e-01,-2.304927408695220947e-01,-2.304927408695220947e-01,-2.304927408695220947e-01,-2.304927408695220947e-01,-2.304927408695220947e-01,-2.304927408695220947e-01,-2.304927408695220947e-01,-2.304927408695220947e-01,-2.304927408695220947e-01,-2.304927408695220947e-01,-2.304927408695220947e-01,-1.951202303171157837e-01,-1.951202303171157837e-01,-1.951202303171157837e-01,-1.951202303171157837e-01,-1.951202303171157837e-01,-1.951202303171157837e-01,-1.951202303171157837e-01,-1.951202303171157837e-01,-1.951202303171157837e-01,-1.951202303171157837e-01,-1.951202303171157837e-01,-1.951202303171157837e-01,-1.951202303171157837e-01,-1.951202303171157837e-01,-2.448242455720901489e-01,-6.639293581247329712e-02,-6.639293581247329712e-02,-6.639293581247329712e-02,-6.639293581247329712e-02,-6.639293581247329712e-02,-6.639293581247329712e-02,-6.639293581247329712e-02,-6.639293581247329712e-02,-6.639293581247329712e-02,-6.639293581247329712e-02,-6.639293581247329712e-02,-6.639293581247329712e-02,-6.639293581247329712e-02,-6.639293581247329712e-02,-6.639293581247329712e-02,-7.244068384170532227e-02,-7.244068384170532227e-02,-7.244068384170532227e-02,-7.244068384170532227e-02,-7.244068384170532227e-02,-7.244068384170532227e-02,-7.244068384170532227e-02,-7.244068384170532227e-02,-7.244068384170532227e-02,-7.244068384170532227e-02,-7.244068384170532227e-02,-7.244068384170532227e-02,-7.244068384170532227e-02,-7.244068384170532227e-02,-7.629662007093429565e-02,-7.629662007093429565e-02,-7.629662007093429565e-02,-7.629662007093429565e-02,-7.629662007093429565e-02,-7.629662007093429565e-02,-7.629662007093429565e-02,-7.629662007093429565e-02,-7.629662007093429565e-02,-7.629662007093429565e-02,-7.629662007093429565e-02,-7.629662007093429565e-02,-7.629662007093429565e-02,-6.350357830524444580e-02,-6.350357830524444580e-02,-6.350357830524444580e-02,-6.350357830524444580e-02,-6.350357830524444580e-02,-6.350357830524444580e-02,-6.350357830524444580e-02,-6.350357830524444580e-02,-6.350357830524444580e-02,-6.350357830524444580e-02,-2.593625783920288086e-01,-2.593625783920288086e-01,-2.593625783920288086e-01,-2.593625783920288086e-01
-3.060761392116546631e-01,-2.946827411651611328e-01,-2.946827411651611328e-01,-2.946827411651611328e-01,-2.946827411651611328e-01,-2.946827411651611328e-01,-2.946827411651611328e-01,-2.946827411651611328e-01,-2.946827411651611328e-01,-2.946827411651611328e-01,-2.895591557025909424e-01,-2.895591557025909424e-01,-2.895591557025909424e-01,-2.895591557025909424e-01,-2.895591557025909424e-01,-2.895591557025909424e-01,-2.866878807544708252e-01,-2.866878807544708252e-01,-2.866878807544708252e-01,-2.866878807544708252e-01,-2.810403108596801758e-01,-2.810403108596801758e-01,-2.810403108596801758e-01,-2.810403108596801758e-01,-2.810403108596801758e-01,-2.810403108596801758e-01,-2.810403108596801758e-01,-2.810403108596801758e-01,-2.810403108596801758e-01,-2.810403108596801758e-01,-2.810403108596801758e-01,-2.810403108596801758e-01,-2.780344188213348389e-01,-2.780344188213348389e-01,-2.780344188213348389e-01,-2.780344188213348389e-01,-2.780344188213348389e-01,-2.780344188213348389e-01,-2.780344188213348389e-01,-2.780344188213348389e-01,-2.780344188213348389e-01,-2.780344188213348389e-01,-2.780344188213348389e-01,-2.780344188213348389e-01,-2.780344188213348389e-01,-2.095388025045394897e-01,-2.095388025045394897e-01,-2.095388025045394897e-01,-2.095388025045394897e-01,-2.095388025045394897e-01,-2.095388025045394897e-01,-2.095388025045394897e-01,-2.095388025045394897e-01,-2.095388025045394897e-01,-2.095388025045394897e-01,-2.095388025045394897e-01,-2.095388025045394897e-01,-2.095388025045394897e-01,-2.095388025045394897e-01,-2.416888326406478882e-01,-5.381962284445762634e-02,-5.381962284445762634e-02,-5.381962284445762634e-02,-5.381962284445762634e-02,-5.381962284445762634e-02,-5.381962284445762634e-02,-5.381962284445762634e-02,-5.381962284445762634e-02,-5.381962284445762634e-02,-5.381962284445762634e-02,-5.381962284445762634e-02,-5.381962284445762634e-02,-5.381962284445762634e-02,-5.381962284445762634e-02,-5.381962284445762634e-02,-5.608569830656051636e-02,-5.608569830656051636e-02,-5.608569830656051636e-02,-5.608569830656051636e-02,-5.608569830656051636e-02,-5.608569830656051636e-02,-5.608569830656051636e-02,-5.608569830656051636e-02,-5.608569830656051636e-02,-5.608569830656051636e-02,-5.608569830656051636e-02,-5.608569830656051636e-02,-5.608569830656051636e-02,-5.608569830656051636e-02,-6.399907171726226807e-02,-6.399907171726226807e-02,-6.399907171726226807e-02,-6.399907171726226807e-02,-6.399907171726226807e-02,-6.399907171726226807e-02,-6.399907171726226807e-02,-6.399907171726226807e-02,-6.399907171726226807e-02,-6.399907171726226807e-02,-6.399907171726226807e-02,-6.399907171726226807e-02,-6.399907171726226807e-02,-3.675996512174606323e-02,-3.675996512174606323e-02,-3.675996512174606323e-02,-3.675996512174606323e-02,-3.675996512174606323e-02,-3.675996512174606323e-02,-3.675996512174606323e-02,-3.675996512174606323e-02,-3.675996512174606323e-02,-3.675996512174606323e-02,-2.233079522848129272e-01,-2.233079522848129272e-01,-2.233079522848129272e-01,-2.233079522848129272e-01
-2.974976897239685059e-01,-2.818143367767333984e-01,-2.818143367767333984e-01,-2.818143367767333984e-01,-2.818143367767333984e-01,-2.818143367767333984e-01,-2.818143367767333984e-01,-2.818143367767333984e-01,-2.818143367767333984e-01,-2.818143367767333984e-01,-2.834872603416442871e-01,-2.834872603416442871e-01,-2.834872603416442871e-01,-2.834872603416442871e-01,-2.834872603416442871e-01,-2.834872603416442871e-01,-2.659751474857330322e-01,-2.659751474857330322e-01,-2.659751474857330322e-01,-2.659751474857330322e-01,-2.758515477180480957e-01,-2.758515477180480957e-01,-2.758515477180480957e-01,-2.758515477180480957e-01,-2.758515477180480957e-01,-2.758515477180480957e-01,-2.758515477180480957e-01,-2.758515477180480957e-01,-2.758515477180480957e-01,-2.758515477180480957e-01,-2.758515477180480957e-01,-2.758515477180480957e-01,-2.740593254566192627e-01,-2.740593254566192627e-01,-2.740593254566192627e-01,-2.740593254566192627e-01,-2.740593254566192627e-01,-2.740593254566192627e-01,-2.740593254566192627e-01,-2.740593254566192627e-01,-2.740593254566192627e-01,-2.740593254566192627e-01,-2.740593254566192627e-01,-2.740593254566192627e-01,-2.740593254566192627e-01,-1.954454630613327026e-01,-1.954454630613327026e-01,-1.954454630613327026e-01,-1.954454630613327026e-01,-1.954454630613327026e-01,-1.954454630613327026e-01,-1.954454630613327026e-01,-1.954454630613327026e-01,-1.954454630613327026e-01,-1.954454630613327026e-01,-1.954454630613327026e-01,-1.954454630613327026e-01,-1.954454630613327026e-01,-1.954454630613327026e-01,-2.074301391839981079e-01,-3.381697461009025574e-02,-3.381697461009025574e-02,-3.381697461009025574e-02,-3.381697461009025574e-02,-3.381697461009025574e-02,-3.381697461009025574e-02,-3.381697461009025574e-02,-3.381697461009025574e-02,-3.381697461009025574e-02,-3.381697461009025574e-02,-3.381697461009025574e-02,-3.381697461009025574e-02,-3.381697461009025574e-02,-3.381697461009025574e-02,-3.381697461009025574e-02,-3.684883937239646912e-02,-3.684883937239646912e-02,-3.684883937239646912e-02,-3.684883937239646912e-02,-3.684883937239646912e-02,-3.684883937239646912e-02,-3.684883937239646912e-02,-3.684883937239646912e-02,-3.684883937239646912e-02,-3.684883937239646912e-02,-3.684883937239646912e-02,-3.684883937239646912e-02,-3.684883937239646912e-02,-3.684883937239646912e-02,-3.950510919094085693e-02,-3.950510919094085693e-02,-3.950510919094085693e-02,-3.950510919094085693e-02,-3.950510919094085693e-02,-3.950510919094085693e-02,-3.950510919094085693e-02,-3.950510919094085693e-02,-3.950510919094085693e-02,-3.950510919094085693e-02,-3.950510919094085693e-02,-3.950510919094085693e-02,-3.950510919094085693e-02,-5.374040920287370682e-03,-5.374040920287370682e-03,-5.374040920287370682e-03,-5.374040920287370682e-03,-5.374040920287370682e-03,-5.374040920287370682e-03,-5.374040920287370682e-03,-5.374040920287370682e-03,-5.374040920287370682e-03,-5.374040920287370682e-03,-1.787029951810836792e-01,-1.787029951810836792e-01,-1.787029951810836792e-01,-1.787029951810836792e-01
-2.436140179634094238e-01,-2.224320769309997559e-01,-2.224320769309997559e-01,-2.224320769309997559e-01,-2.224320769309997559e-01,-2.224320769309997559e-01,-2.224320769309997559e-01,-2.224320769309997559e-01,-2.224320769309997559e-01,-2.224320769309997559e-01,-2.357504814863204956e-01,-2.357504814863204956e-01,-2.357504814863204956e-01,-2.357504814863204956e-01,-2.357504814863204956e-01,-2.357504814863204956e-01,-2.034136503934860229e-01,-2.034136503934860229e-01,-2.034136503934860229e-01,-2.034136503934860229e-01,-2.135710716247558594e-01,-2.135710716247558594e-01,-2.135710716247558594e-01,-2.135710716247558594e-01,-2.135710716247558594e-01,-2.135710716247558594e-01,-2.135710716247558594e-01,-2.135710716247558594e-01,-2.135710716247558594e-01,-2.135710716247558594e-01,-2.135710716247558594e-01,-2.135710716247558594e-01,-2.007590234279632568e-01,-2.007590234279632568e-01,-2.007590234279632568e-01,-2.007590234279632568e-01,-2.007590234279632568e-01,-2.007590234279632568e-01,-2.007590234279632568e-01,-2.007590234279632568e-01,-2.007590234279632568e-01,-2.007590234279632568e-01,-2.007590234279632568e-01,-2.007590234279632568e-01,-2.007590234279632568e-01,-1.297413557767868042e-01,-1.297413557767868042e-01,-1.297413557767868042e-01,-1.297413557767868042e-01,-1.297413557767868042e-01,-1.297413557767868042e-01,-1.297413557767868042e-01,-1.297413557767868042e-01,-1.297413557767868042e-01,-1.297413557767868042e-01,-1.297413557767868042e-01,-1.297413557767868042e-01,-1.297413557767868042e-01,-1.297413557767868042e-01,-1.422982364892959595e-01,9.562267921864986420e-03,9.562267921864986420e-03,9.562267921864986420e-03,9.562267921864986420e-03,9.562267921864986420e-03,9.562267921864986420e-03,9.562267921864986420e-03,9.562267921864986420e-03,9.562267921864986420e-03,9.562267921864986420e-03,9.562267921864986420e-03,9.562267921864986420e-03,9.562267921864986420e-03,9.562267921864986420e-03,9.562267921864986420e-03,7.508454378694295883e-03,7.508454378694295883e-03,7.508454378694295883e-03,7.508454378694295883e-03,7.508454378694295883e-03,7.508454378694295883e-03,7.508454378694295883e-03,7.508454378694295883e-03,7.508454378694295883e-03,7.508454378694295883e-03,7.508454378694295883e-03,7.508454378694295883e-03,7.508454378694295883e-03,7.508454378694295883e-03,1.443822635337710381e-03,1.443822635337710381e-03,1.443822635337710381e-03,1.443822635337710381e-03,1.443822635337710381e-03,1.443822635337710381e-03,1.443822635337710381e-03,1.443822635337710381e-03,1.443822635337710381e-03,1.443822635337710381e-03,1.443822635337710381e-03,1.443822635337710381e-03,1.443822635337710381e-03,3.728170692920684814e-02,3.728170692920684814e-02,3.728170692920684814e-02,3.728170692920684814e-02,3.728170692920684814e-02,3.728170692920684814e-02,3.728170692920684814e-02,3.728170692920684814e-02,3.728170692920684814e-02,3.728170692920684814e-02,-1.288192719221115112e-01,-1.288192719221115112e-01,-1.288192719221115112e-01,-1.288192719221115112e-01
-1.904846578836441040e-01,-1.768885254859924316e-01,-1.768885254859924316e-01,-1.768885254859924316e-01,-1.768885254859924316e-01,-1.768885254859924316e-01,-1.768885254859924316e-01,-1.768885254859924316e-01,-1.768885254859924316e-01,-1.768885254859924316e-01,-1.959839463233947754e-01,-1.959839463233947754e-01,-1.959839463233947754e-01,-1.959839463233947754e-01,-1.959839463233947754e-01,-1.959839463233947754e-01,-1.649846583604812622e-01,-1.649846583604812622e-01,-1.649846583604812622e-01,-1.649846583604812622e-01,-1.759961247444152832e-01,-1.759961247444152832e-01,-1.759961247444152832e-01,-1.759961247444152832e-01,-1.759961247444152832e-01,-1.759961247444152832e-01,-1.759961247444152832e-01,-1.759961247444152832e-01,-1.759961247444152832e-01,-1.759961247444152832e-01,-1.759961247444152832e-01,-1.759961247444152832e-01,-1.607892811298370361e-01,-1.607892811298370361e-01,-1.607892811298370361e-01,-1.607892811298370361e-01,-1.607892811298370361e-01,-1.607892811298370361e-01,-1.607892811298370361e-01,-1.607892811298370361e-01,-1.607892811298370361e-01,-1.607892811298370361e-01,-1.607892811298370361e-01,-1.607892811298370361e-01,-1.607892811298370361e-01,-9.148359298706054688e-02,-9.148359298706054688e-02,-9.148359298706054688e-02,-9.148359298706054688e-02,-9.148359298706054688e-02,-9.148359298706054688e-02,-9.148359298706054688e-02,-9.148359298706054688e-02,-9.148359298706054688e-02,-9.148359298706054688e-02,-9.148359298706054688e-02,-9.148359298706054688e-02,-9.148359298706054688e-02,-9.148359298706054688e-02,-1.154359653592109680e-01,3.616547957062721252e-02,3.616547957062721252e-02,3.616547957062721252e-02,3.616547957062721252e-02,3.616547957062721252e-02,3.616547957062721252e-02,3.616547957062721252e-02,3.616547957062721252e-02,3.616547957062721252e-02,3.616547957062721252e-02,3.616547957062721252e-02,3.616547957062721252e-02,3.616547957062721252e-02,3.616547957062721252e-02,3.616547957062721252e-02,3.036765381693840027e-02,3.036765381693840027e-02,3.036765381693840027e-02,3.036765381693840027e-02,3.036765381693840027e-02,3.036765381693840027e-02,3.036765381693840027e-02,3.036765381693840027e-02,3.036765381693840027e-02,3.036765381693840027e-02,3.036765381693840027e-02,3.036765381693840027e-02,3.036765381693840027e-02,3.036765381693840027e-02,2.150389365851879120e-02,2.150389365851879120e-02,2.150389365851879120e-02,2.150389365851879120e-02,2.150389365851879120e-02,2.150389365851879120e-02,2.150389365851879120e-02,2.150389365851879120e-02,2.150389365851879120e-02,2.150389365851879120e-02,2.150389365851879120e-02,2.150389365851879120e-02,2.150389365851879120e-02,5.563854053616523743e-02,5.563854053616523743e-02,5.563854053616523743e-02,5.563854053616523743e-02,5.563854053616523743e-02,5.563854053616523743e-02,5.563854053616523743e-02,5.563854053616523743e-02,5.563854053616523743e-02,5.563854053616523743e-02,-1.122501790523529053e-01,-1.122501790523529053e-01,-1.122501790523529053e-01,-1.122501790523529053e-01
-1.332384198904037476e-01,-1.275379657745361328e-01,-1.275379657745361328e-01,-1.275379657745361328e-01,-1.275379657745361328e-01,-1.275379657745361328e-01,-1.275379657745361328e-01,-1.275379657745361328e-01,-1.275379657745361328e-01,-1.275379657745361328e-01,-1.463130414485931396e-01,-1.463130414485931396e-01,-1.463130414485931396e-01,-1.463130414485931396e-01,-1.463130414485931396e-01,-1.463130414485931396e-01,-1.222531795501708984e-01,-1.222531795501708984e-01,-1.222531795501708984e-01,-1.222531795501708984e-01,-1.302132159471511841e-01,-1.302132159471511841e-01,-1.302132159471511841e-01,-1.302132159471511841e-01,-1.302132159471511841e-01,-1.302132159471511841e-01,-1.302132159471511841e-01,-1.302132159471511841e-01,-1.302132159471511841e-01,-1.302132159471511841e-01,-1.302132159471511841e-01,-1.302132159471511841e-01,-1.138415113091468811e-01,-1.138415113091468811e-01,-1.138415113091468811e-01,-1.138415113091468811e-01,-1.138415113091468811e-01,-1.138415113091468811e-01,-1.138415113091468811e-01,-1.138415113091468811e-01,-1.138415113091468811e-01,-1.138415113091468811e-01,-1.138415113091468811e-01,-1.138415113091468811e-01,-1.138415113091468811e-01,-5.121841281652450562e-02,-5.121841281652450562e-02,-5.121841281652450562e-02,-5.121841281652450562e-02,-5.121841281652450562e-02,-5.121841281652450562e-02,-5.121841281652450562e-02,-5.121841281652450562e-02,-5.121841281652450562e-02,-5.121841281652450562e-02,-5.121841281652450562e-02,-5.121841281652450562e-02,-5.121841281652450562e-02,-5.121841281652450562e-02,-7.618262618780136108e-02,6.821199506521224976e-02,6.821199506521224976e-02,6.821199506521224976e-02,6.821199506521224976e-02,6.821199506521224976e-02,6.821199506521224976e-02,6.821199506521224976e-02,6.821199506521224976e-02,6.821199506521224976e-02,6.821199506521224976e-02,6.821199506521224976e-02,6.821199506521224976e-02,6.821199506521224976e-02,6.821199506521224976e-02,6.821199506521224976e-02,6.138993054628372192e-02,6.138993054628372192e-02,6.138993054628372192e-02,6.138993054628372192e-02,6.138993054628372192e-02,6.138993054628372192e-02,6.138993054628372192e-02,6.138993054628372192e-02,6.138993054628372192e-02,6.138993054628372192e-02,6.138993054628372192e-02,6.138993054628372192e-02,6.138993054628372192e-02,6.138993054628372192e-02,5.096698552370071411e-02,5.096698552370071411e-02,5.096698552370071411e-02,5.096698552370071411e-02,5.096698552370071411e-02,5.096698552370071411e-02,5.096698552370071411e-02,5.096698552370071411e-02,5.096698552370071411e-02,5.096698552370071411e-02,5.096698552370071411e-02,5.096698552370071411e-02,5.096698552370071411e-02,8.138654381036758423e-02,8.138654381036758423e-02,8.138654381036758423e-02,8.138654381036758423e-02,8.138654381036758423e-02,8.138654381036758423e-02,8.138654381036758423e-02,8.138654381036758423e-02,8.138654381036758423e-02,8.138654381036758423e-02,-8.380774408578872681e-02,-8.380774408578872681e-02,-8.380774408578872681e-02,-8.380774408578872681e-02
-8.518770337104797363e-02,-9.086415171623229980e-02,-9.086415171623229980e-02,-9.086415171623229980e-02,-9.086415171623229980e-02,-9.086415171623229980e-02,-9.086415171623229980e-02,-9.086415171623229980e-02,-9.086415171623229980e-02,-9.086415171623229980e-02,-1.001577302813529968e-01,-1.001577302813529968e-01,-1.001577302813529968e-01,-1.001577302813529968e-01,-1.001577302813529968e-01,-1.001577302813529968e-01,-9.077983349561691284e-02,-9.077983349561691284e-02,-9.077983349561691284e-02,-9.077983349561691284e-02,-9.519032388925552368e-02,-9.519032388925552368e-02,-9.519032388925552368e-02,-9.519032388925552368e-02,-9.519032388925552368e-02,-9.519032388925552368e-02,-9.519032388925552368e-02,-9.519032388925552368e-02,-9.519032388925552368e-02,-9.519032388925552368e-02,-9.519032388925552368e-02,-9.519032388925552368e-02,-8.204661309719085693e-02,-8.204661309719085693e-02,-8.204661309719085693e-02,-8.204661309719085693e-02,-8.204661309719085693e-02,-8.204661309719085693e-02,-8.204661309719085693e-02,-8.204661309719085693e-02,-8.204661309719085693e-02,-8.204661309719085693e-02,-8.204661309719085693e-02,-8.204661309719085693e-02,-8.204661309719085693e-02,-2.819207496941089630e-02,-2.819207496941089630e-02,-2.819207496941089630e-02,-2.819207496941089630e-02,-2.819207496941089630e-02,-2.819207496941089630e-02,-2.819207496941089630e-02,-2.819207496941089630e-02,-2.819207496941089630e-02,-2.819207496941089630e-02,-2.819207496941089630e-02,-2.819207496941089630e-02,-2.819207496941089630e-02,-2.819207496941089630e-02,-5.680386722087860107e-02,8.747035264968872070e-02,8.747035264968872070e-02,8.747035264968872070e-02,8.747035264968872070e-02,8.747035264968872070e-02,8.747035264968872070e-02,8.747035264968872070e-02,8.747035264968872070e-02,8.747035264968872070e-02,8.747035264968872070e-02,8.747035264968872070e-02,8.747035264968872070e-02,8.747035264968872070e-02,8.747035264968872070e-02,8.747035264968872070e-02,7.848972082138061523e-02,7.848972082138061523e-02,7.848972082138061523e-02,7.848972082138061523e-02,7.848972082138061523e-02,7.848972082138061523e-02,7.848972082138061523e-02,7.848972082138061523e-02,7.848972082138061523e-02,7.848972082138061523e-02,7.848972082138061523e-02,7.848972082138061523e-02,7.848972082138061523e-02,7.848972082138061523e-02,6.666725873947143555e-02,6.666725873947143555e-02,6.666725873947143555e-02,6.666725873947143555e-02,6.666725873947143555e-02,6.666725873947143555e-02,6.666725873947143555e-02,6.666725873947143555e-02,6.666725873947143555e-02,6.666725873947143555e-02,6.666725873947143555e-02,6.666725873947143555e-02,6.666725873947143555e-02,9.469191730022430420e-02,9.469191730022430420e-02,9.469191730022430420e-02,9.469191730022430420e-02,9.469191730022430420e-02,9.469191730022430420e-02,9.469191730022430420e-02,9.469191730022430420e-02,9.469191730022430420e-02,9.469191730022430420e-02,-7.512246817350387573e-02,-7.512246817350387573e-02,-7.512246817350387573e-02,-7.512246817350387573e-02
-5.816578492522239685e-02,-6.788345426321029663e-02,-6.788345426321029663e-02,-6.788345426321029663e-02,-6.788345426321029663e-02,-6.788345426321029663e-02,-6.788345426321029663e-02,-6.788345426321029663e-02,-6.788345426321029663e-02,-6.788345426321029663e-02,-7.210440933704376221e-02,-7.210440933704376221e-02,-7.210440933704376221e-02,-7.210440933704376221e-02,-7.210440933704376221e-02,-7.210440933704376221e-02,-7.079719752073287964e-02,-7.079719752073287964e-02,-7.079719752073287964e-02,-7.079719752073287964e-02,-7.084915041923522949e-02,-7.084915041923522949e-02,-7.084915041923522949e-02,-7.084915041923522949e-02,-7.084915041923522949e-02,-7.084915041923522949e-02,-7.084915041923522949e-02,-7.084915041923522949e-02,-7.084915041923522949e-02,-7.084915041923522949e-02,-7.084915041923522949e-02,-7.084915041923522949e-02,-5.399986729025840759e-02,-5.399986729025840759e-02,-5.399986729025840759e-02,-5.399986729025840759e-02,-5.399986729025840759e-02,-5.399986729025840759e-02,-5.399986729025840759e-02,-5.399986729025840759e-02,-5.399986729025840759e-02,-5.399986729025840759e-02,-5.399986729025840759e-02,-5.399986729025840759e-02,-5.399986729025840759e-02,-1.017543370835483074e-03,-1.017543370835483074e-03,-1.017543370835483074e-03,-1.017543370835483074e-03,-1.017543370835483074e-03,-1.017543370835483074e-03,-1.017543370835483074e-03,-1.017543370835483074e-03,-1.017543370835483074e-03,-1.017543370835483074e-03,-1.017543370835483074e-03,-1.017543370835483074e-03,-1.017543370835483074e-03,-1.017543370835483074e-03,-3.215361759066581726e-02,1.116807013750076294e-01,1.116807013750076294e-01,1.116807013750076294e-01,1.116807013750076294e-01,1.116807013750076294e-01,1.116807013750076294e-01,1.116807013750076294e-01,1.116807013750076294e-01,1.116807013750076294e-01,1.116807013750076294e-01,1.116807013750076294e-01,1.116807013750076294e-01,1.116807013750076294e-01,1.116807013750076294e-01,1.116807013750076294e-01,1.015115976333618164e-01,1.015115976333618164e-01,1.015115976333618164e-01,1.015115976333618164e-01,1.015115976333618164e-01,1.015115976333618164e-01,1.015115976333618164e-01,1.015115976333618164e-01,1.015115976333618164e-01,1.015115976333618164e-01,1.015115976333618164e-01,1.015115976333618164e-01,1.015115976333618164e-01,1.015115976333618164e-01,9.074551612138748169e-02,9.074551612138748169e-02,9.074551612138748169e-02,9.074551612138748169e-02,9.074551612138748169e-02,9.074551612138748169e-02,9.074551612138748169e-02,9.074551612138748169e-02,9.074551612138748169e-02,9.074551612138748169e-02,9.074551612138748169e-02,9.074551612138748169e-02,9.074551612138748169e-02,1.178474798798561096e-01,1.178474798798561096e-01,1.178474798798561096e-01,1.178474798798561096e-01,1.178474798798561096e-01,1.178474798798561096e-01,1.178474798798561096e-01,1.178474798798561096e-01,1.178474798798561096e-01,1.178474798798561096e-01,-4.629222303628921509e-02,-4.629222303628921509e-02,-4.629222303628921509e-02,-4.629222303628921509e-02
-7.713441550731658936e-02,-8.523880690336227417e-02,-8.523880690336227417e-02,-8.523880690336227417e-02,-8.523880690336227417e-02,-8.523880690336227417e-02,-8.523880690336227417e-02,-8.523880690336227417e-02,-8.523880690336227417e-02,-8.523880690336227417e-02,-8.817131072282791138e-02,-8.817131072282791138e-02,-8.817131072282791138e-02,-8.817131072282791138e-02,-8.817131072282791138e-02,-8.817131072282791138e-02,-8.875370025634765625e-02,-8.875370025634765625e-02,-8.875370025634765625e-02,-8.875370025634765625e-02,-8.460167050361633301e-02,-8.460167050361633301e-02,-8.460167050361633301e-02,-8.460167050361633301e-02,-8.460167050361633301e-02,-8.460167050361633301e-02,-8.460167050361633301e-02,-8.460167050361633301e-02,-8.460167050361633301e-02,-8.460167050361633301e-02,-8.460167050361633301e-02,-8.460167050361633301e-02,-6.311351805925369263e-02,-6.311351805925369263e-02,-6.311351805925369263e-02,-6.311351805925369263e-02,-6.311351805925369263e-02,-6.311351805925369263e-02,-6.311351805925369263e-02,-6.311351805925369263e-02,-6.311351805925369263e-02,-6.311351805925369263e-02,-6.311351805925369263e-02,-6.311351805925369263e-02,-6.311351805925369263e-02,-8.117281831800937653e-03,-8.117281831800937653e-03,-8.117281831800937653e-03,-8.117281831800937653e-03,-8.117281831800937653e-03,-8.117281831800937653e-03,-8.117281831800937653e-03,-8.117281831800937653e-03,-8.117281831800937653e-03,-8.117281831800937653e-03,-8.117281831800937653e-03,-8.117281831800937653e-03,-8.117281831800937653e-03,-8.117281831800937653e-03,-3.912487998604774475e-02,1.039497479796409607e-01,1.039497479796409607e-01,1.039497479796409607e-01,1.039497479796409607e-01,1.039497479796409607e-01,1.039497479796409607e-01,1.039497479796409607e-01,1.039497479796409607e-01,1.039497479796409607e-01,1.039497479796409607e-01,1.039497479796409607e-01,1.039497479796409607e-01,1.039497479796409607e-01,1.039497479796409607e-01,1.039497479796409607e-01,9.327868372201919556e-02,9.327868372201919556e-02,9.327868372201919556e-02,9.327868372201919556e-02,9.327868372201919556e-02,9.327868372201919556e-02,9.327868372201919556e-02,9.327868372201919556e-02,9.327868372201919556e-02,9.327868372201919556e-02,9.327868372201919556e-02,9.327868372201919556e-02,9.327868372201919556e-02,9.327868372201919556e-02,8.324438333511352539e-02,8.324438333511352539e-02,8.324438333511352539e-02,8.324438333511352539e-02,8.324438333511352539e-02,8.324438333511352539e-02,8.324438333511352539e-02,8.324438333511352539e-02,8.324438333511352539e-02,8.324438333511352539e-02,8.324438333511352539e-02,8.324438333511352539e-02,8.324438333511352539e-02,1.092134565114974976e-01,1.092134565114974976e-01,1.092134565114974976e-01,1.092134565114974976e-01,1.092134565114974976e-01,1.092134565114974976e-01,1.092134565114974976e-01,1.092134565114974976e-01,1.092134565114974976e-01,1.092134565114974976e-01,-5.356432124972343445e-02,-5.356432124972343445e-02,-5.356432124972343445e-02,-5.356432124972343445e-02
-1.211702823638916016e-01,-1.335298717021942139e-01,-1.335298717021942139e-01,-1.335298717021942139e-01,-1.335298717021942139e-01,-1.335298717021942139e-01,-1.335298717021942139e-01,-1.335298717021942139e-01,-1.335298717021942139e-01,-1.335298717021942139e-01,-1.277101486921310425e-01,-1.277101486921310425e-01,-1.277101486921310425e-01,-1.277101486921310425e-01,-1.277101486921310425e-01,-1.277101486921310425e-01,-1.296621114015579224e-01,-1.296621114015579224e-01,-1.296621114015579224e-01,-1.296621114015579224e-01,-1.169834583997726440e-01,-1.169834583997726440e-01,-1.169834583997726440e-01,-1.169834583997726440e-01,-1.169834583997726440e-01,-1.169834583997726440e-01,-1.169834583997726440e-01,-1.169834583997726440e-01,-1.169834583997726440e-01,-1.169834583997726440e-01,-1.169834583997726440e-01,-1.169834583997726440e-01,-9.383288025856018066e-02,-9.383288025856018066e-02,-9.383288025856018066e-02,-9.383288025856018066e-02,-9.383288025856018066e-02,-9.383288025856018066e-02,-9.383288025856018066e-02,-9.383288025856018066e-02,-9.383288025856018066e-02,-9.383288025856018066e-02,-9.383288025856018066e-02,-9.383288025856018066e-02,-9.383288025856018066e-02,-4.061805829405784607e-02,-4.061805829405784607e-02,-4.061805829405784607e-02,-4.061805829405784607e-02,-4.061805829405784607e-02,-4.061805829405784607e-02,-4.061805829405784607e-02,-4.061805829405784607e-02,-4.061805829405784607e-02,-4.061805829405784607e-02,-4.061805829405784607e-02,-4.061805829405784607e-02,-4.061805829405784607e-02,-4.061805829405784607e-02,-7.287811487913131714e-02,7.355254888534545898e-02,7.355254888534545898e-02,7.355254888534545898e-02,7.355254888534545898e-02,7.355254888534545898e-02,7.355254888534545898e-02,7.355254888534545898e-02,7.355254888534545898e-02,7.355254888534545898e-02,7.355254888534545898e-02,7.355254888534545898e-02,7.355254888534545898e-02,7.355254888534545898e-02,7.355254888534545898e-02,7.355254888534545898e-02,6.187636405229568481e-02,6.187636405229568481e-02,6.187636405229568481e-02,6.187636405229568481e-02,6.187636405229568481e-02,6.187636405229568481e-02,6.187636405229568481e-02,6.187636405229568481e-02,6.187636405229568481e-02,6.187636405229568481e-02,6.187636405229568481e-02,6.187636405229568481e-02,6.187636405229568481e-02,6.187636405229568481e-02,5.357663705945014954e-02,5.357663705945014954e-02,5.357663705945014954e-02,5.357663705945014954e-02,5.357663705945014954e-02,5.357663705945014954e-02,5.357663705945014954e-02,5.357663705945014954e-02,5.357663705945014954e-02,5.357663705945014954e-02,5.357663705945014954e-02,5.357663705945014954e-02,5.357663705945014954e-02,6.700266897678375244e-02,6.700266897678375244e-02,6.700266897678375244e-02,6.700266897678375244e-02,6.700266897678375244e-02,6.700266897678375244e-02,6.700266897678375244e-02,6.700266897678375244e-02,6.700266897678375244e-02,6.700266897678375244e-02,-1.138494834303855896e-01,-1.138494834303855896e-01,-1.138494834303855896e-01,-1.138494834303855896e-01
-1.794463545083999634e-01,-1.921414583921432495e-01,-1.921414583921432495e-01,-1.921414583921432495e-01,-1.921414583921432495e-01,-1.921414583921432495e-01,-1.921414583921432495e-01,-1.921414583921432495e-01,-1.921414583921432495e-01,-1.921414583921432495e-01,-1.790307611227035522e-01,-1.790307611227035522e-01,-1.790307611227035522e-01,-1.790307611227035522e-01,-1.790307611227035522e-01,-1.790307611227035522e-01,-1.819872707128524780e-01,-1.819872707128524780e-01,-1.819872707128524780e-01,-1.819872707128524780e-01,-1.634300798177719116e-01,-1.634300798177719116e-01,-1.634300798177719116e-01,-1.634300798177719116e-01,-1.634300798177719116e-01,-1.634300798177719116e-01,-1.634300798177719116e-01,-1.634300798177719116e-01,-1.634300798177719116e-01,-1.634300798177719116e-01,-1.634300798177719116e-01,-1.634300798177719116e-01,-1.398091316223144531e-01,-1.398091316223144531e-01,-1.398091316223144531e-01,-1.398091316223144531e-01,-1.398091316223144531e-01,-1.398091316223144531e-01,-1.398091316223144531e-01,-1.398091316223144531e-01,-1.398091316223144531e-01,-1.398091316223144531e-01,-1.398091316223144531e-01,-1.398091316223144531e-01,-1.398091316223144531e-01,-8.427827060222625732e-02,-8.427827060222625732e-02,-8.427827060222625732e-02,-8.427827060222625732e-02,-8.427827060222625732e-02,-8.427827060222625732e-02,-8.427827060222625732e-02,-8.427827060222625732e-02,-8.427827060222625732e-02,-8.427827060222625732e-02,-8.427827060222625732e-02,-8.427827060222625732e-02,-8.427827060222625732e-02,-8.427827060222625732e-02,-1.312580406665802002e-01,3.510823845863342285e-02,3.510823845863342285e-02,3.510823845863342285e-02,3.510823845863342285e-02,3.510823845863342285e-02,3.510823845863342285e-02,3.510823845863342285e-02,3.510823845863342285e-02,3.510823845863342285e-02,3.510823845863342285e-02,3.510823845863342285e-02,3.510823845863342285e-02,3.510823845863342285e-02,3.510823845863342285e-02,3.510823845863342285e-02,2.300537750124931335e-02,2.300537750124931335e-02,2.300537750124931335e-02,2.300537750124931335e-02,2.300537750124931335e-02,2.300537750124931335e-02,2.300537750124931335e-02,2.300537750124931335e-02,2.300537750124931335e-02,2.300537750124931335e-02,2.300537750124931335e-02,2.300537750124931335e-02,2.300537750124931335e-02,2.300537750124931335e-02,1.726412214338779449e-02,1.726412214338779449e-02,1.726412214338779449e-02,1.726412214338779449e-02,1.726412214338779449e-02,1.726412214338779449e-02,1.726412214338779449e-02,1.726412214338779449e-02,1.726412214338779449e-02,1.726412214338779449e-02,1.726412214338779449e-02,1.726412214338779449e-02,1.726412214338779449e-02,3.012517467141151428e-02,3.012517467141151428e-02,3.012517467141151428e-02,3.012517467141151428e-02,3.012517467141151428e-02,3.012517467141151428e-02,3.012517467141151428e-02,3.012517467141151428e-02,3.012517467141151428e-02,3.012517467141151428e-02,-1.669480055570602417e-01,-1.669480055570602417e-01,-1.669480055570602417e-01,-1.669480055570602417e-01
-2.331215441226959229e-01,-2.301027029752731323e-01,-2.301027029752731323e-01,-2.301027029752731323e-01,-2.301027029752731323e-01,-2.301027029752731323e-01,-2.301027029752731323e-01,-2.301027029752731323e-01,-2.301027029752731323e-01,-2.301027029752731323e-01,-2.229294627904891968e-01,-2.229294627904891968e-01,-2.229294627904891968e-01,-2.229294627904891968e-01,-2.229294627904891968e-01,-2.229294627904891968e-01,-2.179807275533676147e-01,-2.179807275533676147e-01,-2.179807275533676147e-01,-2.179807275533676147e-01,-2.110108584165573120e-01,-2.110108584165573120e-01,-2.110108584165573120e-01,-2.110108584165573120e-01,-2.110108584165573120e-01,-2.110108584165573120e-01,-2.110108584165573120e-01,-2.110108584165573120e-01,-2.110108584165573120e-01,-2.110108584165573120e-01,-2.110108584165573120e-01,-2.110108584165573120e-01,-1.928825229406356812e-01,-1.928825229406356812e-01,-1.928825229406356812e-01,-1.928825229406356812e-01,-1.928825229406356812e-01,-1.928825229406356812e-01,-1.928825229406356812e-01,-1.928825229406356812e-01,-1.928825229406356812e-01,-1.928825229406356812e-01,-1.928825229406356812e-01,-1.928825229406356812e-01,-1.928825229406356812e-01,-1.226134300231933594e-01,-1.226134300231933594e-01,-1.226134300231933594e-01,-1.226134300231933594e-01,-1.226134300231933594e-01,-1.226134300231933594e-01,-1.226134300231933594e-01,-1.226134300231933594e-01,-1.226134300231933594e-01,-1.226134300231933594e-01,-1.226134300231933594e-01,-1.226134300231933594e-01,-1.226134300231933594e-01,-1.226134300231933594e-01,-1.632083207368850708e-01,4.833342507481575012e-03,4.833342507481575012e-03,4.833342507481575012e-03,4.833342507481575012e-03,4.833342507481575012e-03,4.833342507481575012e-03,4.833342507481575012e-03,4.833342507481575012e-03,4.833342507481575012e-03,4.833342507481575012e-03,4.833342507481575012e-03,4.833342507481575012e-03,4.833342507481575012e-03,4.833342507481575012e-03,4.833342507481575012e-03,-2.043642103672027588e-03,-2.043642103672027588e-03,-2.043642103672027588e-03,-2.043642103672027588e-03,-2.043642103672027588e-03,-2.043642103672027588e-03,-2.043642103672027588e-03,-2.043642103672027588e-03,-2.043642103672027588e-03,-2.043642103672027588e-03,-2.043642103672027588e-03,-2.043642103672027588e-03,-2.043642103672027588e-03,-2.043642103672027588e-03,-6.671589333564043045e-03,-6.671589333564043045e-03,-6.671589333564043045e-03,-6.671589333564043045e-03,-6.671589333564043045e-03,-6.671589333564043045e-03,-6.671589333564043045e-03,-6.671589333564043045e-03,-6.671589333564043045e-03,-6.671589333564043045e-03,-6.671589333564043045e-03,-6.671589333564043045e-03,-6.671589333564043045e-03,7.555665913969278336e-03,7.555665913969278336e-03,7.555665913969278336e-03,7.555665913969278336e-03,7.555665913969278336e-03,7.555665913969278336e-03,7.555665913969278336e-03,7.555665913969278336e-03,7.555665913969278336e-03,7.555665913969278336e-03,-1.701217144727706909e-01,-1.701217144727706909e-01,-1.701217144727706909e-01,-1.701217144727706909e-01
-2.817359268665313721e-01,-2.791691720485687256e-01,-2.791691720485687256e-01,-2.791691720485687256e-01,-2.791691720485687256e-01,-2.791691720485687256e-01,-2.791691720485687256e-01,-2.791691720485687256e-01,-2.791691720485687256e-01,-2.791691720485687256e-01,-2.695469260215759277e-01,-2.695469260215759277e-01,-2.695469260215759277e-01,-2.695469260215759277e-01,-2.695469260215759277e-01,-2.695469260215759277e-01,-2.771349847316741943e-01,-2.771349847316741943e-01,-2.771349847316741943e-01,-2.771349847316741943e-01,-2.673513591289520264e-01,-2.673513591289520264e-01,-2.673513591289520264e-01,-2.673513591289520264e-01,-2.673513591289520264e-01,-2.673513591289520264e-01,-2.673513591289520264e-01,-2.673513591289520264e-01,-2.673513591289520264e-01,-2.673513591289520264e-01,-2.673513591289520264e-01,-2.673513591289520264e-01,-2.486854195594787598e-01,-2.486854195594787598e-01,-2.486854195594787598e-01,-2.486854195594787598e-01,-2.486854195594787598e-01,-2.486854195594787598e-01,-2.486854195594787598e-01,-2.486854195594787598e-01,-2.486854195594787598e-01,-2.486854195594787598e-01,-2.486854195594787598e-01,-2.486854195594787598e-01,-2.486854195594787598e-01,-1.691084504127502441e-01,-1.691084504127502441e-01,-1.691084504127502441e-01,-1.691084504127502441e-01,-1.691084504127502441e-01,-1.691084504127502441e-01,-1.691084504127502441e-01,-1.691084504127502441e-01,-1.691084504127502441e-01,-1.691084504127502441e-01,-1.691084504127502441e-01,-1.691084504127502441e-01,-1.691084504127502441e-01,-1.691084504127502441e-01,-1.998296678066253662e-01,-2.139310725033283234e-02,-2.139310725033283234e-02,-2.139310725033283234e-02,-2.139310725033283234e-02,-2.139310725033283234e-02,-2.139310725033283234e-02,-2.139310725033283234e-02,-2.139310725033283234e-02,-2.139310725033283234e-02,-2.139310725033283234e-02,-2.139310725033283234e-02,-2.139310725033283234e-02,-2.139310725033283234e-02,-2.139310725033283234e-02,-2.139310725033283234e-02,-2.492311596870422363e-02,-2.492311596870422363e-02,-2.492311596870422363e-02,-2.492311596870422363e-02,-2.492311596870422363e-02,-2.492311596870422363e-02,-2.492311596870422363e-02,-2.492311596870422363e-02,-2.492311596870422363e-02,-2.492311596870422363e-02,-2.492311596870422363e-02,-2.492311596870422363e-02,-2.492311596870422363e-02,-2.492311596870422363e-02,-3.093143366277217865e-02,-3.093143366277217865e-02,-3.093143366277217865e-02,-3.093143366277217865e-02,-3.093143366277217865e-02,-3.093143366277217865e-02,-3.093143366277217865e-02,-3.093143366277217865e-02,-3.093143366277217865e-02,-3.093143366277217865e-02,-3.093143366277217865e-02,-3.093143366277217865e-02,-3.093143366277217865e-02,-1.131297089159488678e-02,-1.131297089159488678e-02,-1.131297089159488678e-02,-1.131297089159488678e-02,-1.131297089159488678e-02,-1.131297089159488678e-02,-1.131297089159488678e-02,-1.131297089159488678e-02,-1.131297089159488678e-02,-1.131297089159488678e-02,-2.070688009262084961e-01,-2.070688009262084961e-01,-2.070688009262084961e-01,-2.070688009262084961e-01
