-2.064322680234909058e-01,-1.873513162136077881e-01,-1.873513162136077881e-01,-1.873513162136077881e-01,-1.873513162136077881e-01,-1.873513162136077881e-01,-1.873513162136077881e-01,-1.873513162136077881e-01,-1.873513162136077881e-01,-1.873513162136077881e-01,-1.959524750709533691e-01,-1.959524750709533691e-01,-1.959524750709533691e-01,-1.959524750709533691e-01,-1.959524750709533691e-01,-1.959524750709533691e-01,-1.721266955137252808e-01,-1.721266955137252808e-01,-1.721266955137252808e-01,-1.721266955137252808e-01,-1.809077709913253784e-01,-1.809077709913253784e-01,-1.809077709913253784e-01,-1.809077709913253784e-01,-1.809077709913253784e-01,-1.809077709913253784e-01,-1.809077709913253784e-01,-1.809077709913253784e-01,-1.809077709913253784e-01,-1.809077709913253784e-01,-1.809077709913253784e-01,-1.809077709913253784e-01,-1.680210381746292114e-01,-1.680210381746292114e-01,-1.680210381746292114e-01,-1.680210381746292114e-01,-1.680210381746292114e-01,-1.680210381746292114e-01,-1.680210381746292114e-01,-1.680210381746292114e-01,-1.680210381746292114e-01,-1.680210381746292114e-01,-1.680210381746292114e-01,-1.680210381746292114e-01,-1.680210381746292114e-01,-1.008214578032493591e-01,-1.008214578032493591e-01,-1.008214578032493591e-01,-1.008214578032493591e-01,-1.008214578032493591e-01,-1.008214578032493591e-01,-1.008214578032493591e-01,-1.008214578032493591e-01,-1.008214578032493591e-01,-1.008214578032493591e-01,-1.008214578032493591e-01,-1.008214578032493591e-01,-1.008214578032493591e-01,-1.008214578032493591e-01,-1.086786091327667236e-01,2.888520061969757080e-02,2.888520061969757080e-02,2.888520061969757080e-02,2.888520061969757080e-02,2.888520061969757080e-02,2.888520061969757080e-02,2.888520061969757080e-02,2.888520061969757080e-02,2.888520061969757080e-02,2.888520061969757080e-02,2.888520061969757080e-02,2.888520061969757080e-02,2.888520061969757080e-02,2.888520061969757080e-02,2.888520061969757080e-02,2.418350987136363983e-02,2.418350987136363983e-02,2.418350987136363983e-02,2.418350987136363983e-02,2.418350987136363983e-02,2.418350987136363983e-02,2.418350987136363983e-02,2.418350987136363983e-02,2.418350987136363983e-02,2.418350987136363983e-02,2.418350987136363983e-02,2.418350987136363983e-02,2.418350987136363983e-02,2.418350987136363983e-02,2.108511142432689667e-02,2.108511142432689667e-02,2.108511142432689667e-02,2.108511142432689667e-02,2.108511142432689667e-02,2.108511142432689667e-02,2.108511142432689667e-02,2.108511142432689667e-02,2.108511142432689667e-02,2.108511142432689667e-02,2.108511142432689667e-02,2.108511142432689667e-02,2.108511142432689667e-02,5.148235335946083069e-02,5.148235335946083069e-02,5.148235335946083069e-02,5.148235335946083069e-02,5.148235335946083069e-02,5.148235335946083069e-02,5.148235335946083069e-02,5.148235335946083069e-02,5.148235335946083069e-02,5.148235335946083069e-02,-9.020454436540603638e-02,-9.020454436540603638e-02,-9.020454436540603638e-02,-9.020454436540603638e-02
-1.442341804504394531e-01,-1.331186443567276001e-01,-1.331186443567276001e-01,-1.331186443567276001e-01,-1.331186443567276001e-01,-1.331186443567276001e-01,-1.331186443567276001e-01,-1.331186443567276001e-01,-1.331186443567276001e-01,-1.331186443567276001e-01,-1.462645232677459717e-01,-1.462645232677459717e-01,-1.462645232677459717e-01,-1.462645232677459717e-01,-1.462645232677459717e-01,-1.462645232677459717e-01,-1.186189800500869751e-01,-1.186189800500869751e-01,-1.186189800500869751e-01,-1.186189800500869751e-01,-1.278619021177291870e-01,-1.278619021177291870e-01,-1.278619021177291870e-01,-1.278619021177291870e-01,-1.278619021177291870e-01,-1.278619021177291870e-01,-1.278619021177291870e-01,-1.278619021177291870e-01,-1.278619021177291870e-01,-1.278619021177291870e-01,-1.278619021177291870e-01,-1.278619021177291870e-01,-1.149654537439346313e-01,-1.149654537439346313e-01,-1.149654537439346313e-01,-1.149654537439346313e-01,-1.149654537439346313e-01,-1.149654537439346313e-01,-1.149654537439346313e-01,-1.149654537439346313e-01,-1.149654537439346313e-01,-1.149654537439346313e-01,-1.149654537439346313e-01,-1.149654537439346313e-01,-1.149654537439346313e-01,-5.234996974468231201e-02,-5.234996974468231201e-02,-5.234996974468231201e-02,-5.234996974468231201e-02,-5.234996974468231201e-02,-5.234996974468231201e-02,-5.234996974468231201e-02,-5.234996974468231201e-02,-5.234996974468231201e-02,-5.234996974468231201e-02,-5.234996974468231201e-02,-5.234996974468231201e-02,-5.234996974468231201e-02,-5.234996974468231201e-02,-6.808274239301681519e-02,6.328447163105010986e-02,6.328447163105010986e-02,6.328447163105010986e-02,6.328447163105010986e-02,6.328447163105010986e-02,6.328447163105010986e-02,6.328447163105010986e-02,6.328447163105010986e-02,6.328447163105010986e-02,6.328447163105010986e-02,6.328447163105010986e-02,6.328447163105010986e-02,6.328447163105010986e-02,6.328447163105010986e-02,6.328447163105010986e-02,5.627050995826721191e-02,5.627050995826721191e-02,5.627050995826721191e-02,5.627050995826721191e-02,5.627050995826721191e-02,5.627050995826721191e-02,5.627050995826721191e-02,5.627050995826721191e-02,5.627050995826721191e-02,5.627050995826721191e-02,5.627050995826721191e-02,5.627050995826721191e-02,5.627050995826721191e-02,5.627050995826721191e-02,5.012145265936851501e-02,5.012145265936851501e-02,5.012145265936851501e-02,5.012145265936851501e-02,5.012145265936851501e-02,5.012145265936851501e-02,5.012145265936851501e-02,5.012145265936851501e-02,5.012145265936851501e-02,5.012145265936851501e-02,5.012145265936851501e-02,5.012145265936851501e-02,5.012145265936851501e-02,8.421137928962707520e-02,8.421137928962707520e-02,8.421137928962707520e-02,8.421137928962707520e-02,8.421137928962707520e-02,8.421137928962707520e-02,8.421137928962707520e-02,8.421137928962707520e-02,8.421137928962707520e-02,8.421137928962707520e-02,-5.916794762015342712e-02,-5.916794762015342712e-02,-5.916794762015342712e-02,-5.916794762015342712e-02
-8.204663544893264771e-02,-8.911191672086715698e-02,-8.911191672086715698e-02,-8.911191672086715698e-02,-8.911191672086715698e-02,-8.911191672086715698e-02,-8.911191672086715698e-02,-8.911191672086715698e-02,-8.911191672086715698e-02,-8.911191672086715698e-02,-9.727076441049575806e-02,-9.727076441049575806e-02,-9.727076441049575806e-02,-9.727076441049575806e-02,-9.727076441049575806e-02,-9.727076441049575806e-02,-8.342927694320678711e-02,-8.342927694320678711e-02,-8.342927694320678711e-02,-8.342927694320678711e-02,-8.774997293949127197e-02,-8.774997293949127197e-02,-8.774997293949127197e-02,-8.774997293949127197e-02,-8.774997293949127197e-02,-8.774997293949127197e-02,-8.774997293949127197e-02,-8.774997293949127197e-02,-8.774997293949127197e-02,-8.774997293949127197e-02,-8.774997293949127197e-02,-8.774997293949127197e-02,-7.326436787843704224e-02,-7.326436787843704224e-02,-7.326436787843704224e-02,-7.326436787843704224e-02,-7.326436787843704224e-02,-7.326436787843704224e-02,-7.326436787843704224e-02,-7.326436787843704224e-02,-7.326436787843704224e-02,-7.326436787843704224e-02,-7.326436787843704224e-02,-7.326436787843704224e-02,-7.326436787843704224e-02,-1.800608076155185699e-02,-1.800608076155185699e-02,-1.800608076155185699e-02,-1.800608076155185699e-02,-1.800608076155185699e-02,-1.800608076155185699e-02,-1.800608076155185699e-02,-1.800608076155185699e-02,-1.800608076155185699e-02,-1.800608076155185699e-02,-1.800608076155185699e-02,-1.800608076155185699e-02,-1.800608076155185699e-02,-1.800608076155185699e-02,-4.326094686985015869e-02,8.491131663322448730e-02,8.491131663322448730e-02,8.491131663322448730e-02,8.491131663322448730e-02,8.491131663322448730e-02,8.491131663322448730e-02,8.491131663322448730e-02,8.491131663322448730e-02,8.491131663322448730e-02,8.491131663322448730e-02,8.491131663322448730e-02,8.491131663322448730e-02,8.491131663322448730e-02,8.491131663322448730e-02,8.491131663322448730e-02,7.747948914766311646e-02,7.747948914766311646e-02,7.747948914766311646e-02,7.747948914766311646e-02,7.747948914766311646e-02,7.747948914766311646e-02,7.747948914766311646e-02,7.747948914766311646e-02,7.747948914766311646e-02,7.747948914766311646e-02,7.747948914766311646e-02,7.747948914766311646e-02,7.747948914766311646e-02,7.747948914766311646e-02,6.797726452350616455e-02,6.797726452350616455e-02,6.797726452350616455e-02,6.797726452350616455e-02,6.797726452350616455e-02,6.797726452350616455e-02,6.797726452350616455e-02,6.797726452350616455e-02,6.797726452350616455e-02,6.797726452350616455e-02,6.797726452350616455e-02,6.797726452350616455e-02,6.797726452350616455e-02,9.697186201810836792e-02,9.697186201810836792e-02,9.697186201810836792e-02,9.697186201810836792e-02,9.697186201810836792e-02,9.697186201810836792e-02,9.697186201810836792e-02,9.697186201810836792e-02,9.697186201810836792e-02,9.697186201810836792e-02,-5.517911165952682495e-02,-5.517911165952682495e-02,-5.517911165952682495e-02,-5.517911165952682495e-02
-4.597034305334091187e-02,-5.913948267698287964e-02,-5.913948267698287964e-02,-5.913948267698287964e-02,-5.913948267698287964e-02,-5.913948267698287964e-02,-5.913948267698287964e-02,-5.913948267698287964e-02,-5.913948267698287964e-02,-5.913948267698287964e-02,-6.451398134231567383e-02,-6.451398134231567383e-02,-6.451398134231567383e-02,-6.451398134231567383e-02,-6.451398134231567383e-02,-6.451398134231567383e-02,-5.944379791617393494e-02,-5.944379791617393494e-02,-5.944379791617393494e-02,-5.944379791617393494e-02,-6.091681495308876038e-02,-6.091681495308876038e-02,-6.091681495308876038e-02,-6.091681495308876038e-02,-6.091681495308876038e-02,-6.091681495308876038e-02,-6.091681495308876038e-02,-6.091681495308876038e-02,-6.091681495308876038e-02,-6.091681495308876038e-02,-6.091681495308876038e-02,-6.091681495308876038e-02,-4.669195041060447693e-02,-4.669195041060447693e-02,-4.669195041060447693e-02,-4.669195041060447693e-02,-4.669195041060447693e-02,-4.669195041060447693e-02,-4.669195041060447693e-02,-4.669195041060447693e-02,-4.669195041060447693e-02,-4.669195041060447693e-02,-4.669195041060447693e-02,-4.669195041060447693e-02,-4.669195041060447693e-02,-1.278290175832808018e-03,-1.278290175832808018e-03,-1.278290175832808018e-03,-1.278290175832808018e-03,-1.278290175832808018e-03,-1.278290175832808018e-03,-1.278290175832808018e-03,-1.278290175832808018e-03,-1.278290175832808018e-03,-1.278290175832808018e-03,-1.278290175832808018e-03,-1.278290175832808018e-03,-1.278290175832808018e-03,-1.278290175832808018e-03,-2.970705181360244751e-02,9.147509187459945679e-02,9.147509187459945679e-02,9.147509187459945679e-02,9.147509187459945679e-02,9.147509187459945679e-02,9.147509187459945679e-02,9.147509187459945679e-02,9.147509187459945679e-02,9.147509187459945679e-02,9.147509187459945679e-02,9.147509187459945679e-02,9.147509187459945679e-02,9.147509187459945679e-02,9.147509187459945679e-02,9.147509187459945679e-02,8.450593799352645874e-02,8.450593799352645874e-02,8.450593799352645874e-02,8.450593799352645874e-02,8.450593799352645874e-02,8.450593799352645874e-02,8.450593799352645874e-02,8.450593799352645874e-02,8.450593799352645874e-02,8.450593799352645874e-02,8.450593799352645874e-02,8.450593799352645874e-02,8.450593799352645874e-02,8.450593799352645874e-02,7.208569347858428955e-02,7.208569347858428955e-02,7.208569347858428955e-02,7.208569347858428955e-02,7.208569347858428955e-02,7.208569347858428955e-02,7.208569347858428955e-02,7.208569347858428955e-02,7.208569347858428955e-02,7.208569347858428955e-02,7.208569347858428955e-02,7.208569347858428955e-02,7.208569347858428955e-02,9.899244457483291626e-02,9.899244457483291626e-02,9.899244457483291626e-02,9.899244457483291626e-02,9.899244457483291626e-02,9.899244457483291626e-02,9.899244457483291626e-02,9.899244457483291626e-02,9.899244457483291626e-02,9.899244457483291626e-02,-4.775531962513923645e-02,-4.775531962513923645e-02,-4.775531962513923645e-02,-4.775531962513923645e-02
-2.735663019120693207e-02,-4.301358759403228760e-02,-4.301358759403228760e-02,-4.301358759403228760e-02,-4.301358759403228760e-02,-4.301358759403228760e-02,-4.301358759403228760e-02,-4.301358759403228760e-02,-4.301358759403228760e-02,-4.301358759403228760e-02,-4.308729618787765503e-02,-4.308729618787765503e-02,-4.308729618787765503e-02,-4.308729618787765503e-02,-4.308729618787765503e-02,-4.308729618787765503e-02,-4.641483351588249207e-02,-4.641483351588249207e-02,-4.641483351588249207e-02,-4.641483351588249207e-02,-4.284209012985229492e-02,-4.284209012985229492e-02,-4.284209012985229492e-02,-4.284209012985229492e-02,-4.284209012985229492e-02,-4.284209012985229492e-02,-4.284209012985229492e-02,-4.284209012985229492e-02,-4.284209012985229492e-02,-4.284209012985229492e-02,-4.284209012985229492e-02,-4.284209012985229492e-02,-2.829157188534736633e-02,-2.829157188534736633e-02,-2.829157188534736633e-02,-2.829157188534736633e-02,-2.829157188534736633e-02,-2.829157188534736633e-02,-2.829157188534736633e-02,-2.829157188534736633e-02,-2.829157188534736633e-02,-2.829157188534736633e-02,-2.829157188534736633e-02,-2.829157188534736633e-02,-2.829157188534736633e-02,1.341747678816318512e-02,1.341747678816318512e-02,1.341747678816318512e-02,1.341747678816318512e-02,1.341747678816318512e-02,1.341747678816318512e-02,1.341747678816318512e-02,1.341747678816318512e-02,1.341747678816318512e-02,1.341747678816318512e-02,1.341747678816318512e-02,1.341747678816318512e-02,1.341747678816318512e-02,1.341747678816318512e-02,-1.772445626556873322e-02,1.048019081354141235e-01,1.048019081354141235e-01,1.048019081354141235e-01,1.048019081354141235e-01,1.048019081354141235e-01,1.048019081354141235e-01,1.048019081354141235e-01,1.048019081354141235e-01,1.048019081354141235e-01,1.048019081354141235e-01,1.048019081354141235e-01,1.048019081354141235e-01,1.048019081354141235e-01,1.048019081354141235e-01,1.048019081354141235e-01,9.502541273832321167e-02,9.502541273832321167e-02,9.502541273832321167e-02,9.502541273832321167e-02,9.502541273832321167e-02,9.502541273832321167e-02,9.502541273832321167e-02,9.502541273832321167e-02,9.502541273832321167e-02,9.502541273832321167e-02,9.502541273832321167e-02,9.502541273832321167e-02,9.502541273832321167e-02,9.502541273832321167e-02,8.449913561344146729e-02,8.449913561344146729e-02,8.449913561344146729e-02,8.449913561344146729e-02,8.449913561344146729e-02,8.449913561344146729e-02,8.449913561344146729e-02,8.449913561344146729e-02,8.449913561344146729e-02,8.449913561344146729e-02,8.449913561344146729e-02,8.449913561344146729e-02,8.449913561344146729e-02,1.068898439407348633e-01,1.068898439407348633e-01,1.068898439407348633e-01,1.068898439407348633e-01,1.068898439407348633e-01,1.068898439407348633e-01,1.068898439407348633e-01,1.068898439407348633e-01,1.068898439407348633e-01,1.068898439407348633e-01,-3.523433208465576172e-02,-3.523433208465576172e-02,-3.523433208465576172e-02,-3.523433208465576172e-02
-3.877639770507812500e-02,-4.742746427655220032e-02,-4.742746427655220032e-02,-4.742746427655220032e-02,-4.742746427655220032e-02,-4.742746427655220032e-02,-4.742746427655220032e-02,-4.742746427655220032e-02,-4.742746427655220032e-02,-4.742746427655220032e-02,-4.662492498755455017e-02,-4.662492498755455017e-02,-4.662492498755455017e-02,-4.662492498755455017e-02,-4.662492498755455017e-02,-4.662492498755455017e-02,-4.600980877876281738e-02,-4.600980877876281738e-02,-4.600980877876281738e-02,-4.600980877876281738e-02,-4.146317765116691589e-02,-4.146317765116691589e-02,-4.146317765116691589e-02,-4.146317765116691589e-02,-4.146317765116691589e-02,-4.146317765116691589e-02,-4.146317765116691589e-02,-4.146317765116691589e-02,-4.146317765116691589e-02,-4.146317765116691589e-02,-4.146317765116691589e-02,-4.146317765116691589e-02,-2.469755709171295166e-02,-2.469755709171295166e-02,-2.469755709171295166e-02,-2.469755709171295166e-02,-2.469755709171295166e-02,-2.469755709171295166e-02,-2.469755709171295166e-02,-2.469755709171295166e-02,-2.469755709171295166e-02,-2.469755709171295166e-02,-2.469755709171295166e-02,-2.469755709171295166e-02,-2.469755709171295166e-02,1.783279143273830414e-02,1.783279143273830414e-02,1.783279143273830414e-02,1.783279143273830414e-02,1.783279143273830414e-02,1.783279143273830414e-02,1.783279143273830414e-02,1.783279143273830414e-02,1.783279143273830414e-02,1.783279143273830414e-02,1.783279143273830414e-02,1.783279143273830414e-02,1.783279143273830414e-02,1.783279143273830414e-02,-8.750295266509056091e-03,1.072967723011970520e-01,1.072967723011970520e-01,1.072967723011970520e-01,1.072967723011970520e-01,1.072967723011970520e-01,1.072967723011970520e-01,1.072967723011970520e-01,1.072967723011970520e-01,1.072967723011970520e-01,1.072967723011970520e-01,1.072967723011970520e-01,1.072967723011970520e-01,1.072967723011970520e-01,1.072967723011970520e-01,1.072967723011970520e-01,9.870895743370056152e-02,9.870895743370056152e-02,9.870895743370056152e-02,9.870895743370056152e-02,9.870895743370056152e-02,9.870895743370056152e-02,9.870895743370056152e-02,9.870895743370056152e-02,9.870895743370056152e-02,9.870895743370056152e-02,9.870895743370056152e-02,9.870895743370056152e-02,9.870895743370056152e-02,9.870895743370056152e-02,8.903605490922927856e-02,8.903605490922927856e-02,8.903605490922927856e-02,8.903605490922927856e-02,8.903605490922927856e-02,8.903605490922927856e-02,8.903605490922927856e-02,8.903605490922927856e-02,8.903605490922927856e-02,8.903605490922927856e-02,8.903605490922927856e-02,8.903605490922927856e-02,8.903605490922927856e-02,1.097985133528709412e-01,1.097985133528709412e-01,1.097985133528709412e-01,1.097985133528709412e-01,1.097985133528709412e-01,1.097985133528709412e-01,1.097985133528709412e-01,1.097985133528709412e-01,1.097985133528709412e-01,1.097985133528709412e-01,-2.850209362804889679e-02,-2.850209362804889679e-02,-2.850209362804889679e-02,-2.850209362804889679e-02
-9.670798480510711670e-02,-9.998986870050430298e-02,-9.998986870050430298e-02,-9.998986870050430298e-02,-9.998986870050430298e-02,-9.998986870050430298e-02,-9.998986870050430298e-02,-9.998986870050430298e-02,-9.998986870050430298e-02,-9.998986870050430298e-02,-9.844342619180679321e-02,-9.844342619180679321e-02,-9.844342619180679321e-02,-9.844342619180679321e-02,-9.844342619180679321e-02,-9.844342619180679321e-02,-9.129142016172409058e-02,-9.129142016172409058e-02,-9.129142016172409058e-02,-9.129142016172409058e-02,-8.389508724212646484e-02,-8.389508724212646484e-02,-8.389508724212646484e-02,-8.389508724212646484e-02,-8.389508724212646484e-02,-8.389508724212646484e-02,-8.389508724212646484e-02,-8.389508724212646484e-02,-8.389508724212646484e-02,-8.389508724212646484e-02,-8.389508724212646484e-02,-8.389508724212646484e-02,-6.583035737276077271e-02,-6.583035737276077271e-02,-6.583035737276077271e-02,-6.583035737276077271e-02,-6.583035737276077271e-02,-6.583035737276077271e-02,-6.583035737276077271e-02,-6.583035737276077271e-02,-6.583035737276077271e-02,-6.583035737276077271e-02,-6.583035737276077271e-02,-6.583035737276077271e-02,-6.583035737276077271e-02,-2.114874310791492462e-02,-2.114874310791492462e-02,-2.114874310791492462e-02,-2.114874310791492462e-02,-2.114874310791492462e-02,-2.114874310791492462e-02,-2.114874310791492462e-02,-2.114874310791492462e-02,-2.114874310791492462e-02,-2.114874310791492462e-02,-2.114874310791492462e-02,-2.114874310791492462e-02,-2.114874310791492462e-02,-2.114874310791492462e-02,-4.103602096438407898e-02,7.510545104742050171e-02,7.510545104742050171e-02,7.510545104742050171e-02,7.510545104742050171e-02,7.510545104742050171e-02,7.510545104742050171e-02,7.510545104742050171e-02,7.510545104742050171e-02,7.510545104742050171e-02,7.510545104742050171e-02,7.510545104742050171e-02,7.510545104742050171e-02,7.510545104742050171e-02,7.510545104742050171e-02,7.510545104742050171e-02,6.783045828342437744e-02,6.783045828342437744e-02,6.783045828342437744e-02,6.783045828342437744e-02,6.783045828342437744e-02,6.783045828342437744e-02,6.783045828342437744e-02,6.783045828342437744e-02,6.783045828342437744e-02,6.783045828342437744e-02,6.783045828342437744e-02,6.783045828342437744e-02,6.783045828342437744e-02,6.783045828342437744e-02,6.108754500746726990e-02,6.108754500746726990e-02,6.108754500746726990e-02,6.108754500746726990e-02,6.108754500746726990e-02,6.108754500746726990e-02,6.108754500746726990e-02,6.108754500746726990e-02,6.108754500746726990e-02,6.108754500746726990e-02,6.108754500746726990e-02,6.108754500746726990e-02,6.108754500746726990e-02,7.433161139488220215e-02,7.433161139488220215e-02,7.433161139488220215e-02,7.433161139488220215e-02,7.433161139488220215e-02,7.433161139488220215e-02,7.433161139488220215e-02,7.433161139488220215e-02,7.433161139488220215e-02,7.433161139488220215e-02,-6.847269833087921143e-02,-6.847269833087921143e-02,-6.847269833087921143e-02,-6.847269833087921143e-02
-1.553094238042831421e-01,-1.652140617370605469e-01,-1.652140617370605469e-01,-1.652140617370605469e-01,-1.652140617370605469e-01,-1.652140617370605469e-01,-1.652140617370605469e-01,-1.652140617370605469e-01,-1.652140617370605469e-01,-1.652140617370605469e-01,-1.530572324991226196e-01,-1.530572324991226196e-01,-1.530572324991226196e-01,-1.530572324991226196e-01,-1.530572324991226196e-01,-1.530572324991226196e-01,-1.554284393787384033e-01,-1.554284393787384033e-01,-1.554284393787384033e-01,-1.554284393787384033e-01,-1.425770372152328491e-01,-1.425770372152328491e-01,-1.425770372152328491e-01,-1.425770372152328491e-01,-1.425770372152328491e-01,-1.425770372152328491e-01,-1.425770372152328491e-01,-1.425770372152328491e-01,-1.425770372152328491e-01,-1.425770372152328491e-01,-1.425770372152328491e-01,-1.425770372152328491e-01,-1.262267827987670898e-01,-1.262267827987670898e-01,-1.262267827987670898e-01,-1.262267827987670898e-01,-1.262267827987670898e-01,-1.262267827987670898e-01,-1.262267827987670898e-01,-1.262267827987670898e-01,-1.262267827987670898e-01,-1.262267827987670898e-01,-1.262267827987670898e-01,-1.262267827987670898e-01,-1.262267827987670898e-01,-8.294493705034255981e-02,-8.294493705034255981e-02,-8.294493705034255981e-02,-8.294493705034255981e-02,-8.294493705034255981e-02,-8.294493705034255981e-02,-8.294493705034255981e-02,-8.294493705034255981e-02,-8.294493705034255981e-02,-8.294493705034255981e-02,-8.294493705034255981e-02,-8.294493705034255981e-02,-8.294493705034255981e-02,-8.294493705034255981e-02,-1.194300502538681030e-01,2.398234046995639801e-02,2.398234046995639801e-02,2.398234046995639801e-02,2.398234046995639801e-02,2.398234046995639801e-02,2.398234046995639801e-02,2.398234046995639801e-02,2.398234046995639801e-02,2.398234046995639801e-02,2.398234046995639801e-02,2.398234046995639801e-02,2.398234046995639801e-02,2.398234046995639801e-02,2.398234046995639801e-02,2.398234046995639801e-02,1.395687833428382874e-02,1.395687833428382874e-02,1.395687833428382874e-02,1.395687833428382874e-02,1.395687833428382874e-02,1.395687833428382874e-02,1.395687833428382874e-02,1.395687833428382874e-02,1.395687833428382874e-02,1.395687833428382874e-02,1.395687833428382874e-02,1.395687833428382874e-02,1.395687833428382874e-02,1.395687833428382874e-02,9.095206856727600098e-03,9.095206856727600098e-03,9.095206856727600098e-03,9.095206856727600098e-03,9.095206856727600098e-03,9.095206856727600098e-03,9.095206856727600098e-03,9.095206856727600098e-03,9.095206856727600098e-03,9.095206856727600098e-03,9.095206856727600098e-03,9.095206856727600098e-03,9.095206856727600098e-03,2.081468142569065094e-02,2.081468142569065094e-02,2.081468142569065094e-02,2.081468142569065094e-02,2.081468142569065094e-02,2.081468142569065094e-02,2.081468142569065094e-02,2.081468142569065094e-02,2.081468142569065094e-02,2.081468142569065094e-02,-1.575085520744323730e-01,-1.575085520744323730e-01,-1.575085520744323730e-01,-1.575085520744323730e-01
-2.028779685497283936e-01,-2.039514929056167603e-01,-2.039514929056167603e-01,-2.039514929056167603e-01,-2.039514929056167603e-01,-2.039514929056167603e-01,-2.039514929056167603e-01,-2.039514929056167603e-01,-2.039514929056167603e-01,-2.039514929056167603e-01,-1.977666914463043213e-01,-1.977666914463043213e-01,-1.977666914463043213e-01,-1.977666914463043213e-01,-1.977666914463043213e-01,-1.977666914463043213e-01,-1.980844736099243164e-01,-1.980844736099243164e-01,-1.980844736099243164e-01,-1.980844736099243164e-01,-1.953983753919601440e-01,-1.953983753919601440e-01,-1.953983753919601440e-01,-1.953983753919601440e-01,-1.953983753919601440e-01,-1.953983753919601440e-01,-1.953983753919601440e-01,-1.953983753919601440e-01,-1.953983753919601440e-01,-1.953983753919601440e-01,-1.953983753919601440e-01,-1.953983753919601440e-01,-1.849385350942611694e-01,-1.849385350942611694e-01,-1.849385350942611694e-01,-1.849385350942611694e-01,-1.849385350942611694e-01,-1.849385350942611694e-01,-1.849385350942611694e-01,-1.849385350942611694e-01,-1.849385350942611694e-01,-1.849385350942611694e-01,-1.849385350942611694e-01,-1.849385350942611694e-01,-1.849385350942611694e-01,-1.286292374134063721e-01,-1.286292374134063721e-01,-1.286292374134063721e-01,-1.286292374134063721e-01,-1.286292374134063721e-01,-1.286292374134063721e-01,-1.286292374134063721e-01,-1.286292374134063721e-01,-1.286292374134063721e-01,-1.286292374134063721e-01,-1.286292374134063721e-01,-1.286292374134063721e-01,-1.286292374134063721e-01,-1.286292374134063721e-01,-1.674352735280990601e-01,-4.700606688857078552e-03,-4.700606688857078552e-03,-4.700606688857078552e-03,-4.700606688857078552e-03,-4.700606688857078552e-03,-4.700606688857078552e-03,-4.700606688857078552e-03,-4.700606688857078552e-03,-4.700606688857078552e-03,-4.700606688857078552e-03,-4.700606688857078552e-03,-4.700606688857078552e-03,-4.700606688857078552e-03,-4.700606688857078552e-03,-4.700606688857078552e-03,-1.076110824942588806e-02,-1.076110824942588806e-02,-1.076110824942588806e-02,-1.076110824942588806e-02,-1.076110824942588806e-02,-1.076110824942588806e-02,-1.076110824942588806e-02,-1.076110824942588806e-02,-1.076110824942588806e-02,-1.076110824942588806e-02,-1.076110824942588806e-02,-1.076110824942588806e-02,-1.076110824942588806e-02,-1.076110824942588806e-02,-1.561697293072938919e-02,-1.561697293072938919e-02,-1.561697293072938919e-02,-1.561697293072938919e-02,-1.561697293072938919e-02,-1.561697293072938919e-02,-1.561697293072938919e-02,-1.561697293072938919e-02,-1.561697293072938919e-02,-1.561697293072938919e-02,-1.561697293072938919e-02,-1.561697293072938919e-02,-1.561697293072938919e-02,2.933146315626800060e-04,2.933146315626800060e-04,2.933146315626800060e-04,2.933146315626800060e-04,2.933146315626800060e-04,2.933146315626800060e-04,2.933146315626800060e-04,2.933146315626800060e-04,2.933146315626800060e-04,2.933146315626800060e-04,-1.705286502838134766e-01,-1.705286502838134766e-01,-1.705286502838134766e-01,-1.705286502838134766e-01
-2.360297888517379761e-01,-2.255401015281677246e-01,-2.255401015281677246e-01,-2.255401015281677246e-01,-2.255401015281677246e-01,-2.255401015281677246e-01,-2.255401015281677246e-01,-2.255401015281677246e-01,-2.255401015281677246e-01,-2.255401015281677246e-01,-2.268500477075576782e-01,-2.268500477075576782e-01,-2.268500477075576782e-01,-2.268500477075576782e-01,-2.268500477075576782e-01,-2.268500477075576782e-01,-2.217404395341873169e-01,-2.217404395341873169e-01,-2.217404395341873169e-01,-2.217404395341873169e-01,-2.265428006649017334e-01,-2.265428006649017334e-01,-2.265428006649017334e-01,-2.265428006649017334e-01,-2.265428006649017334e-01,-2.265428006649017334e-01,-2.265428006649017334e-01,-2.265428006649017334e-01,-2.265428006649017334e-01,-2.265428006649017334e-01,-2.265428006649017334e-01,-2.265428006649017334e-01,-2.194717228412628174e-01,-2.194717228412628174e-01,-2.194717228412628174e-01,-2.194717228412628174e-01,-2.194717228412628174e-01,-2.194717228412628174e-01,-2.194717228412628174e-01,-2.194717228412628174e-01,-2.194717228412628174e-01,-2.194717228412628174e-01,-2.194717228412628174e-01,-2.194717228412628174e-01,-2.194717228412628174e-01,-1.513170301914215088e-01,-1.513170301914215088e-01,-1.513170301914215088e-01,-1.513170301914215088e-01,-1.513170301914215088e-01,-1.513170301914215088e-01,-1.513170301914215088e-01,-1.513170301914215088e-01,-1.513170301914215088e-01,-1.513170301914215088e-01,-1.513170301914215088e-01,-1.513170301914215088e-01,-1.513170301914215088e-01,-1.513170301914215088e-01,-1.730992197990417480e-01,-1.224002894014120102e-02,-1.224002894014120102e-02,-1.224002894014120102e-02,-1.224002894014120102e-02,-1.224002894014120102e-02,-1.224002894014120102e-02,-1.224002894014120102e-02,-1.224002894014120102e-02,-1.224002894014120102e-02,-1.224002894014120102e-02,-1.224002894014120102e-02,-1.224002894014120102e-02,-1.224002894014120102e-02,-1.224002894014120102e-02,-1.224002894014120102e-02,-1.399149838835000992e-02,-1.399149838835000992e-02,-1.399149838835000992e-02,-1.399149838835000992e-02,-1.399149838835000992e-02,-1.399149838835000992e-02,-1.399149838835000992e-02,-1.399149838835000992e-02,-1.399149838835000992e-02,-1.399149838835000992e-02,-1.399149838835000992e-02,-1.399149838835000992e-02,-1.399149838835000992e-02,-1.399149838835000992e-02,-2.102607302367687225e-02,-2.102607302367687225e-02,-2.102607302367687225e-02,-2.102607302367687225e-02,-2.102607302367687225e-02,-2.102607302367687225e-02,-2.102607302367687225e-02,-2.102607302367687225e-02,-2.102607302367687225e-02,-2.102607302367687225e-02,-2.102607302367687225e-02,-2.102607302367687225e-02,-2.102607302367687225e-02,7.436953019350767136e-04,7.436953019350767136e-04,7.436953019350767136e-04,7.436953019350767136e-04,7.436953019350767136e-04,7.436953019350767136e-04,7.436953019350767136e-04,7.436953019350767136e-04,7.436953019350767136e-04,7.436953019350767136e-04,-1.522768586874008179e-01,-1.522768586874008179e-01,-1.522768586874008179e-01,-1.522768586874008179e-01
-2.516741454601287842e-01,-2.423341274261474609e-01,-2.423341274261474609e-01,-2.423341274261474609e-01,-2.423341274261474609e-01,-2.423341274261474609e-01,-2.423341274261474609e-01,-2.423341274261474609e-01,-2.423341274261474609e-01,-2.423341274261474609e-01,-2.397897541522979736e-01,-2.397897541522979736e-01,-2.397897541522979736e-01,-2.397897541522979736e-01,-2.397897541522979736e-01,-2.397897541522979736e-01,-2.317796945571899414e-01,-2.317796945571899414e-01,-2.317796945571899414e-01,-2.317796945571899414e-01,-2.337635755538940430e-01,-2.337635755538940430e-01,-2.337635755538940430e-01,-2.337635755538940430e-01,-2.337635755538940430e-01,-2.337635755538940430e-01,-2.337635755538940430e-01,-2.337635755538940430e-01,-2.337635755538940430e-01,-2.337635755538940430e-01,-2.337635755538940430e-01,-2.337635755538940430e-01,-2.244958430528640747e-01,-2.244958430528640747e-01,-2.244958430528640747e-01,-2.244958430528640747e-01,-2.244958430528640747e-01,-2.244958430528640747e-01,-2.244958430528640747e-01,-2.244958430528640747e-01,-2.244958430528640747e-01,-2.244958430528640747e-01,-2.244958430528640747e-01,-2.244958430528640747e-01,-2.244958430528640747e-01,-1.528405994176864624e-01,-1.528405994176864624e-01,-1.528405994176864624e-01,-1.528405994176864624e-01,-1.528405994176864624e-01,-1.528405994176864624e-01,-1.528405994176864624e-01,-1.528405994176864624e-01,-1.528405994176864624e-01,-1.528405994176864624e-01,-1.528405994176864624e-01,-1.528405994176864624e-01,-1.528405994176864624e-01,-1.528405994176864624e-01,-1.639661043882369995e-01,-1.169775705784559250e-02,-1.169775705784559250e-02,-1.169775705784559250e-02,-1.169775705784559250e-02,-1.169775705784559250e-02,-1.169775705784559250e-02,-1.169775705784559250e-02,-1.169775705784559250e-02,-1.169775705784559250e-02,-1.169775705784559250e-02,-1.169775705784559250e-02,-1.169775705784559250e-02,-1.169775705784559250e-02,-1.169775705784559250e-02,-1.169775705784559250e-02,-1.517964061349630356e-02,-1.517964061349630356e-02,-1.517964061349630356e-02,-1.517964061349630356e-02,-1.517964061349630356e-02,-1.517964061349630356e-02,-1.517964061349630356e-02,-1.517964061349630356e-02,-1.517964061349630356e-02,-1.517964061349630356e-02,-1.517964061349630356e-02,-1.517964061349630356e-02,-1.517964061349630356e-02,-1.517964061349630356e-02,-1.845262385904788971e-02,-1.845262385904788971e-02,-1.845262385904788971e-02,-1.845262385904788971e-02,-1.845262385904788971e-02,-1.845262385904788971e-02,-1.845262385904788971e-02,-1.845262385904788971e-02,-1.845262385904788971e-02,-1.845262385904788971e-02,-1.845262385904788971e-02,-1.845262385904788971e-02,-1.845262385904788971e-02,9.183518588542938232e-03,9.183518588542938232e-03,9.183518588542938232e-03,9.183518588542938232e-03,9.183518588542938232e-03,9.183518588542938232e-03,9.183518588542938232e-03,9.183518588542938232e-03,9.183518588542938232e-03,9.183518588542938232e-03,-1.395215839147567749e-01,-1.395215839147567749e-01,-1.395215839147567749e-01,-1.395215839147567749e-01
-2.589863836765289307e-01,-2.464567273855209351e-01,-2.464567273855209351e-01,-2.464567273855209351e-01,-2.464567273855209351e-01,-2.464567273855209351e-01,-2.464567273855209351e-01,-2.464567273855209351e-01,-2.464567273855209351e-01,-2.464567273855209351e-01,-2.462633997201919556e-01,-2.462633997201919556e-01,-2.462633997201919556e-01,-2.462633997201919556e-01,-2.462633997201919556e-01,-2.462633997201919556e-01,-2.283753603696823120e-01,-2.283753603696823120e-01,-2.283753603696823120e-01,-2.283753603696823120e-01,-2.293356955051422119e-01,-2.293356955051422119e-01,-2.293356955051422119e-01,-2.293356955051422119e-01,-2.293356955051422119e-01,-2.293356955051422119e-01,-2.293356955051422119e-01,-2.293356955051422119e-01,-2.293356955051422119e-01,-2.293356955051422119e-01,-2.293356955051422119e-01,-2.293356955051422119e-01,-2.170293629169464111e-01,-2.170293629169464111e-01,-2.170293629169464111e-01,-2.170293629169464111e-01,-2.170293629169464111e-01,-2.170293629169464111e-01,-2.170293629169464111e-01,-2.170293629169464111e-01,-2.170293629169464111e-01,-2.170293629169464111e-01,-2.170293629169464111e-01,-2.170293629169464111e-01,-2.170293629169464111e-01,-1.464008986949920654e-01,-1.464008986949920654e-01,-1.464008986949920654e-01,-1.464008986949920654e-01,-1.464008986949920654e-01,-1.464008986949920654e-01,-1.464008986949920654e-01,-1.464008986949920654e-01,-1.464008986949920654e-01,-1.464008986949920654e-01,-1.464008986949920654e-01,-1.464008986949920654e-01,-1.464008986949920654e-01,-1.464008986949920654e-01,-1.568501740694046021e-01,-1.319112814962863922e-02,-1.319112814962863922e-02,-1.319112814962863922e-02,-1.319112814962863922e-02,-1.319112814962863922e-02,-1.319112814962863922e-02,-1.319112814962863922e-02,-1.319112814962863922e-02,-1.319112814962863922e-02,-1.319112814962863922e-02,-1.319112814962863922e-02,-1.319112814962863922e-02,-1.319112814962863922e-02,-1.319112814962863922e-02,-1.319112814962863922e-02,-1.685271225869655609e-02,-1.685271225869655609e-02,-1.685271225869655609e-02,-1.685271225869655609e-02,-1.685271225869655609e-02,-1.685271225869655609e-02,-1.685271225869655609e-02,-1.685271225869655609e-02,-1.685271225869655609e-02,-1.685271225869655609e-02,-1.685271225869655609e-02,-1.685271225869655609e-02,-1.685271225869655609e-02,-1.685271225869655609e-02,-2.491412311792373657e-02,-2.491412311792373657e-02,-2.491412311792373657e-02,-2.491412311792373657e-02,-2.491412311792373657e-02,-2.491412311792373657e-02,-2.491412311792373657e-02,-2.491412311792373657e-02,-2.491412311792373657e-02,-2.491412311792373657e-02,-2.491412311792373657e-02,-2.491412311792373657e-02,-2.491412311792373657e-02,-2.438551746308803558e-03,-2.438551746308803558e-03,-2.438551746308803558e-03,-2.438551746308803558e-03,-2.438551746308803558e-03,-2.438551746308803558e-03,-2.438551746308803558e-03,-2.438551746308803558e-03,-2.438551746308803558e-03,-2.438551746308803558e-03,-1.567553132772445679e-01,-1.567553132772445679e-01,-1.567553132772445679e-01,-1.567553132772445679e-01
-2.415926307439804077e-01,-2.342287898063659668e-01,-2.342287898063659668e-01,-2.342287898063659668e-01,-2.342287898063659668e-01,-2.342287898063659668e-01,-2.342287898063659668e-01,-2.342287898063659668e-01,-2.342287898063659668e-01,-2.342287898063659668e-01,-2.341275662183761597e-01,-2.341275662183761597e-01,-2.341275662183761597e-01,-2.341275662183761597e-01,-2.341275662183761597e-01,-2.341275662183761597e-01,-2.125920504331588745e-01,-2.125920504331588745e-01,-2.125920504331588745e-01,-2.125920504331588745e-01,-2.145317494869232178e-01,-2.145317494869232178e-01,-2.145317494869232178e-01,-2.145317494869232178e-01,-2.145317494869232178e-01,-2.145317494869232178e-01,-2.145317494869232178e-01,-2.145317494869232178e-01,-2.145317494869232178e-01,-2.145317494869232178e-01,-2.145317494869232178e-01,-2.145317494869232178e-01,-2.055155634880065918e-01,-2.055155634880065918e-01,-2.055155634880065918e-01,-2.055155634880065918e-01,-2.055155634880065918e-01,-2.055155634880065918e-01,-2.055155634880065918e-01,-2.055155634880065918e-01,-2.055155634880065918e-01,-2.055155634880065918e-01,-2.055155634880065918e-01,-2.055155634880065918e-01,-2.055155634880065918e-01,-1.378567218780517578e-01,-1.378567218780517578e-01,-1.378567218780517578e-01,-1.378567218780517578e-01,-1.378567218780517578e-01,-1.378567218780517578e-01,-1.378567218780517578e-01,-1.378567218780517578e-01,-1.378567218780517578e-01,-1.378567218780517578e-01,-1.378567218780517578e-01,-1.378567218780517578e-01,-1.378567218780517578e-01,-1.378567218780517578e-01,-1.515057533979415894e-01,-6.645661778748035431e-03,-6.645661778748035431e-03,-6.645661778748035431e-03,-6.645661778748035431e-03,-6.645661778748035431e-03,-6.645661778748035431e-03,-6.645661778748035431e-03,-6.645661778748035431e-03,-6.645661778748035431e-03,-6.645661778748035431e-03,-6.645661778748035431e-03,-6.645661778748035431e-03,-6.645661778748035431e-03,-6.645661778748035431e-03,-6.645661778748035431e-03,-1.241134945303201675e-02,-1.241134945303201675e-02,-1.241134945303201675e-02,-1.241134945303201675e-02,-1.241134945303201675e-02,-1.241134945303201675e-02,-1.241134945303201675e-02,-1.241134945303201675e-02,-1.241134945303201675e-02,-1.241134945303201675e-02,-1.241134945303201675e-02,-1.241134945303201675e-02,-1.241134945303201675e-02,-1.241134945303201675e-02,-1.898607984185218811e-02,-1.898607984185218811e-02,-1.898607984185218811e-02,-1.898607984185218811e-02,-1.898607984185218811e-02,-1.898607984185218811e-02,-1.898607984185218811e-02,-1.898607984185218811e-02,-1.898607984185218811e-02,-1.898607984185218811e-02,-1.898607984185218811e-02,-1.898607984185218811e-02,-1.898607984185218811e-02,5.485542118549346924e-03,5.485542118549346924e-03,5.485542118549346924e-03,5.485542118549346924e-03,5.485542118549346924e-03,5.485542118549346924e-03,5.485542118549346924e-03,5.485542118549346924e-03,5.485542118549346924e-03,5.485542118549346924e-03,-1.494340598583221436e-01,-1.494340598583221436e-01,-1.494340598583221436e-01,-1.494340598583221436e-01
-1.765742897987365723e-01,-1.679584830999374390e-01,-1.679584830999374390e-01,-1.679584830999374390e-01,-1.679584830999374390e-01,-1.679584830999374390e-01,-1.679584830999374390e-01,-1.679584830999374390e-01,-1.679584830999374390e-01,-1.679584830999374390e-01,-1.795430630445480347e-01,-1.795430630445480347e-01,-1.795430630445480347e-01,-1.795430630445480347e-01,-1.795430630445480347e-01,-1.795430630445480347e-01,-1.486590653657913208e-01,-1.486590653657913208e-01,-1.486590653657913208e-01,-1.486590653657913208e-01,-1.567038893699645996e-01,-1.567038893699645996e-01,-1.567038893699645996e-01,-1.567038893699645996e-01,-1.567038893699645996e-01,-1.567038893699645996e-01,-1.567038893699645996e-01,-1.567038893699645996e-01,-1.567038893699645996e-01,-1.567038893699645996e-01,-1.567038893699645996e-01,-1.567038893699645996e-01,-1.483130455017089844e-01,-1.483130455017089844e-01,-1.483130455017089844e-01,-1.483130455017089844e-01,-1.483130455017089844e-01,-1.483130455017089844e-01,-1.483130455017089844e-01,-1.483130455017089844e-01,-1.483130455017089844e-01,-1.483130455017089844e-01,-1.483130455017089844e-01,-1.483130455017089844e-01,-1.483130455017089844e-01,-9.365460276603698730e-02,-9.365460276603698730e-02,-9.365460276603698730e-02,-9.365460276603698730e-02,-9.365460276603698730e-02,-9.365460276603698730e-02,-9.365460276603698730e-02,-9.365460276603698730e-02,-9.365460276603698730e-02,-9.365460276603698730e-02,-9.365460276603698730e-02,-9.365460276603698730e-02,-9.365460276603698730e-02,-9.365460276603698730e-02,-9.871342033147811890e-02,2.693618461489677429e-02,2.693618461489677429e-02,2.693618461489677429e-02,2.693618461489677429e-02,2.693618461489677429e-02,2.693618461489677429e-02,2.693618461489677429e-02,2.693618461489677429e-02,2.693618461489677429e-02,2.693618461489677429e-02,2.693618461489677429e-02,2.693618461489677429e-02,2.693618461489677429e-02,2.693618461489677429e-02,2.693618461489677429e-02,2.313337847590446472e-02,2.313337847590446472e-02,2.313337847590446472e-02,2.313337847590446472e-02,2.313337847590446472e-02,2.313337847590446472e-02,2.313337847590446472e-02,2.313337847590446472e-02,2.313337847590446472e-02,2.313337847590446472e-02,2.313337847590446472e-02,2.313337847590446472e-02,2.313337847590446472e-02,2.313337847590446472e-02,1.734495349228382111e-02,1.734495349228382111e-02,1.734495349228382111e-02,1.734495349228382111e-02,1.734495349228382111e-02,1.734495349228382111e-02,1.734495349228382111e-02,1.734495349228382111e-02,1.734495349228382111e-02,1.734495349228382111e-02,1.734495349228382111e-02,1.734495349228382111e-02,1.734495349228382111e-02,4.378676787018775940e-02,4.378676787018775940e-02,4.378676787018775940e-02,4.378676787018775940e-02,4.378676787018775940e-02,4.378676787018775940e-02,4.378676787018775940e-02,4.378676787018775940e-02,4.378676787018775940e-02,4.378676787018775940e-02,-1.038912981748580933e-01,-1.038912981748580933e-01,-1.038912981748580933e-01,-1.038912981748580933e-01
-1.200774386525154114e-01,-1.248766258358955383e-01,-1.248766258358955383e-01,-1.248766258358955383e-01,-1.248766258358955383e-01,-1.248766258358955383e-01,-1.248766258358955383e-01,-1.248766258358955383e-01,-1.248766258358955383e-01,-1.248766258358955383e-01,-1.336825639009475708e-01,-1.336825639009475708e-01,-1.336825639009475708e-01,-1.336825639009475708e-01,-1.336825639009475708e-01,-1.336825639009475708e-01,-1.166208311915397644e-01,-1.166208311915397644e-01,-1.166208311915397644e-01,-1.166208311915397644e-01,-1.237609311938285828e-01,-1.237609311938285828e-01,-1.237609311938285828e-01,-1.237609311938285828e-01,-1.237609311938285828e-01,-1.237609311938285828e-01,-1.237609311938285828e-01,-1.237609311938285828e-01,-1.237609311938285828e-01,-1.237609311938285828e-01,-1.237609311938285828e-01,-1.237609311938285828e-01,-1.173552721738815308e-01,-1.173552721738815308e-01,-1.173552721738815308e-01,-1.173552721738815308e-01,-1.173552721738815308e-01,-1.173552721738815308e-01,-1.173552721738815308e-01,-1.173552721738815308e-01,-1.173552721738815308e-01,-1.173552721738815308e-01,-1.173552721738815308e-01,-1.173552721738815308e-01,-1.173552721738815308e-01,-6.521378457546234131e-02,-6.521378457546234131e-02,-6.521378457546234131e-02,-6.521378457546234131e-02,-6.521378457546234131e-02,-6.521378457546234131e-02,-6.521378457546234131e-02,-6.521378457546234131e-02,-6.521378457546234131e-02,-6.521378457546234131e-02,-6.521378457546234131e-02,-6.521378457546234131e-02,-6.521378457546234131e-02,-6.521378457546234131e-02,-8.310727775096893311e-02,4.492908716201782227e-02,4.492908716201782227e-02,4.492908716201782227e-02,4.492908716201782227e-02,4.492908716201782227e-02,4.492908716201782227e-02,4.492908716201782227e-02,4.492908716201782227e-02,4.492908716201782227e-02,4.492908716201782227e-02,4.492908716201782227e-02,4.492908716201782227e-02,4.492908716201782227e-02,4.492908716201782227e-02,4.492908716201782227e-02,3.924582153558731079e-02,3.924582153558731079e-02,3.924582153558731079e-02,3.924582153558731079e-02,3.924582153558731079e-02,3.924582153558731079e-02,3.924582153558731079e-02,3.924582153558731079e-02,3.924582153558731079e-02,3.924582153558731079e-02,3.924582153558731079e-02,3.924582153558731079e-02,3.924582153558731079e-02,3.924582153558731079e-02,2.782352268695831299e-02,2.782352268695831299e-02,2.782352268695831299e-02,2.782352268695831299e-02,2.782352268695831299e-02,2.782352268695831299e-02,2.782352268695831299e-02,2.782352268695831299e-02,2.782352268695831299e-02,2.782352268695831299e-02,2.782352268695831299e-02,2.782352268695831299e-02,2.782352268695831299e-02,5.811712890863418579e-02,5.811712890863418579e-02,5.811712890863418579e-02,5.811712890863418579e-02,5.811712890863418579e-02,5.811712890863418579e-02,5.811712890863418579e-02,5.811712890863418579e-02,5.811712890863418579e-02,5.811712890863418579e-02,-8.626936376094818115e-02,-8.626936376094818115e-02,-8.626936376094818115e-02,-8.626936376094818115e-02
-6.864007562398910522e-02,-8.727565407752990723e-02,-8.727565407752990723e-02,-8.727565407752990723e-02,-8.727565407752990723e-02,-8.727565407752990723e-02,-8.727565407752990723e-02,-8.727565407752990723e-02,-8.727565407752990723e-02,-8.727565407752990723e-02,-8.740446716547012329e-02,-8.740446716547012329e-02,-8.740446716547012329e-02,-8.740446716547012329e-02,-8.740446716547012329e-02,-8.740446716547012329e-02,-8.556709438562393188e-02,-8.556709438562393188e-02,-8.556709438562393188e-02,-8.556709438562393188e-02,-8.547519892454147339e-02,-8.547519892454147339e-02,-8.547519892454147339e-02,-8.547519892454147339e-02,-8.547519892454147339e-02,-8.547519892454147339e-02,-8.547519892454147339e-02,-8.547519892454147339e-02,-8.547519892454147339e-02,-8.547519892454147339e-02,-8.547519892454147339e-02,-8.547519892454147339e-02,-7.324752211570739746e-02,-7.324752211570739746e-02,-7.324752211570739746e-02,-7.324752211570739746e-02,-7.324752211570739746e-02,-7.324752211570739746e-02,-7.324752211570739746e-02,-7.324752211570739746e-02,-7.324752211570739746e-02,-7.324752211570739746e-02,-7.324752211570739746e-02,-7.324752211570739746e-02,-7.324752211570739746e-02,-2.304939553141593933e-02,-2.304939553141593933e-02,-2.304939553141593933e-02,-2.304939553141593933e-02,-2.304939553141593933e-02,-2.304939553141593933e-02,-2.304939553141593933e-02,-2.304939553141593933e-02,-2.304939553141593933e-02,-2.304939553141593933e-02,-2.304939553141593933e-02,-2.304939553141593933e-02,-2.304939553141593933e-02,-2.304939553141593933e-02,-4.722148180007934570e-02,8.004374057054519653e-02,8.004374057054519653e-02,8.004374057054519653e-02,8.004374057054519653e-02,8.004374057054519653e-02,8.004374057054519653e-02,8.004374057054519653e-02,8.004374057054519653e-02,8.004374057054519653e-02,8.004374057054519653e-02,8.004374057054519653e-02,8.004374057054519653e-02,8.004374057054519653e-02,8.004374057054519653e-02,8.004374057054519653e-02,7.246006280183792114e-02,7.246006280183792114e-02,7.246006280183792114e-02,7.246006280183792114e-02,7.246006280183792114e-02,7.246006280183792114e-02,7.246006280183792114e-02,7.246006280183792114e-02,7.246006280183792114e-02,7.246006280183792114e-02,7.246006280183792114e-02,7.246006280183792114e-02,7.246006280183792114e-02,7.246006280183792114e-02,5.885942280292510986e-02,5.885942280292510986e-02,5.885942280292510986e-02,5.885942280292510986e-02,5.885942280292510986e-02,5.885942280292510986e-02,5.885942280292510986e-02,5.885942280292510986e-02,5.885942280292510986e-02,5.885942280292510986e-02,5.885942280292510986e-02,5.885942280292510986e-02,5.885942280292510986e-02,8.826501667499542236e-02,8.826501667499542236e-02,8.826501667499542236e-02,8.826501667499542236e-02,8.826501667499542236e-02,8.826501667499542236e-02,8.826501667499542236e-02,8.826501667499542236e-02,8.826501667499542236e-02,8.826501667499542236e-02,-5.456304550170898438e-02,-5.456304550170898438e-02,-5.456304550170898438e-02,-5.456304550170898438e-02
-5.854868143796920776e-02,-6.681374460458755493e-02,-6.681374460458755493e-02,-6.681374460458755493e-02,-6.681374460458755493e-02,-6.681374460458755493e-02,-6.681374460458755493e-02,-6.681374460458755493e-02,-6.681374460458755493e-02,-6.681374460458755493e-02,-7.388058304786682129e-02,-7.388058304786682129e-02,-7.388058304786682129e-02,-7.388058304786682129e-02,-7.388058304786682129e-02,-7.388058304786682129e-02,-6.949504464864730835e-02,-6.949504464864730835e-02,-6.949504464864730835e-02,-6.949504464864730835e-02,-7.010980695486068726e-02,-7.010980695486068726e-02,-7.010980695486068726e-02,-7.010980695486068726e-02,-7.010980695486068726e-02,-7.010980695486068726e-02,-7.010980695486068726e-02,-7.010980695486068726e-02,-7.010980695486068726e-02,-7.010980695486068726e-02,-7.010980695486068726e-02,-7.010980695486068726e-02,-5.191333591938018799e-02,-5.191333591938018799e-02,-5.191333591938018799e-02,-5.191333591938018799e-02,-5.191333591938018799e-02,-5.191333591938018799e-02,-5.191333591938018799e-02,-5.191333591938018799e-02,-5.191333591938018799e-02,-5.191333591938018799e-02,-5.191333591938018799e-02,-5.191333591938018799e-02,-5.191333591938018799e-02,-1.445720554329454899e-03,-1.445720554329454899e-03,-1.445720554329454899e-03,-1.445720554329454899e-03,-1.445720554329454899e-03,-1.445720554329454899e-03,-1.445720554329454899e-03,-1.445720554329454899e-03,-1.445720554329454899e-03,-1.445720554329454899e-03,-1.445720554329454899e-03,-1.445720554329454899e-03,-1.445720554329454899e-03,-1.445720554329454899e-03,-2.844550833106040955e-02,9.523687511682510376e-02,9.523687511682510376e-02,9.523687511682510376e-02,9.523687511682510376e-02,9.523687511682510376e-02,9.523687511682510376e-02,9.523687511682510376e-02,9.523687511682510376e-02,9.523687511682510376e-02,9.523687511682510376e-02,9.523687511682510376e-02,9.523687511682510376e-02,9.523687511682510376e-02,9.523687511682510376e-02,9.523687511682510376e-02,8.787075430154800415e-02,8.787075430154800415e-02,8.787075430154800415e-02,8.787075430154800415e-02,8.787075430154800415e-02,8.787075430154800415e-02,8.787075430154800415e-02,8.787075430154800415e-02,8.787075430154800415e-02,8.787075430154800415e-02,8.787075430154800415e-02,8.787075430154800415e-02,8.787075430154800415e-02,8.787075430154800415e-02,7.398337870836257935e-02,7.398337870836257935e-02,7.398337870836257935e-02,7.398337870836257935e-02,7.398337870836257935e-02,7.398337870836257935e-02,7.398337870836257935e-02,7.398337870836257935e-02,7.398337870836257935e-02,7.398337870836257935e-02,7.398337870836257935e-02,7.398337870836257935e-02,7.398337870836257935e-02,1.011402085423469543e-01,1.011402085423469543e-01,1.011402085423469543e-01,1.011402085423469543e-01,1.011402085423469543e-01,1.011402085423469543e-01,1.011402085423469543e-01,1.011402085423469543e-01,1.011402085423469543e-01,1.011402085423469543e-01,-3.660830110311508179e-02,-3.660830110311508179e-02,-3.660830110311508179e-02,-3.660830110311508179e-02
-5.930423364043235779e-02,-5.750065669417381287e-02,-5.750065669417381287e-02,-5.750065669417381287e-02,-5.750065669417381287e-02,-5.750065669417381287e-02,-5.750065669417381287e-02,-5.750065669417381287e-02,-5.750065669417381287e-02,-5.750065669417381287e-02,-6.806253641843795776e-02,-6.806253641843795776e-02,-6.806253641843795776e-02,-6.806253641843795776e-02,-6.806253641843795776e-02,-6.806253641843795776e-02,-5.413841828703880310e-02,-5.413841828703880310e-02,-5.413841828703880310e-02,-5.413841828703880310e-02,-5.436455830931663513e-02,-5.436455830931663513e-02,-5.436455830931663513e-02,-5.436455830931663513e-02,-5.436455830931663513e-02,-5.436455830931663513e-02,-5.436455830931663513e-02,-5.436455830931663513e-02,-5.436455830931663513e-02,-5.436455830931663513e-02,-5.436455830931663513e-02,-5.436455830931663513e-02,-3.777757659554481506e-02,-3.777757659554481506e-02,-3.777757659554481506e-02,-3.777757659554481506e-02,-3.777757659554481506e-02,-3.777757659554481506e-02,-3.777757659554481506e-02,-3.777757659554481506e-02,-3.777757659554481506e-02,-3.777757659554481506e-02,-3.777757659554481506e-02,-3.777757659554481506e-02,-3.777757659554481506e-02,8.960017003118991852e-03,8.960017003118991852e-03,8.960017003118991852e-03,8.960017003118991852e-03,8.960017003118991852e-03,8.960017003118991852e-03,8.960017003118991852e-03,8.960017003118991852e-03,8.960017003118991852e-03,8.960017003118991852e-03,8.960017003118991852e-03,8.960017003118991852e-03,8.960017003118991852e-03,8.960017003118991852e-03,-1.330950297415256500e-02,1.053332090377807617e-01,1.053332090377807617e-01,1.053332090377807617e-01,1.053332090377807617e-01,1.053332090377807617e-01,1.053332090377807617e-01,1.053332090377807617e-01,1.053332090377807617e-01,1.053332090377807617e-01,1.053332090377807617e-01,1.053332090377807617e-01,1.053332090377807617e-01,1.053332090377807617e-01,1.053332090377807617e-01,1.053332090377807617e-01,9.508585929870605469e-02,9.508585929870605469e-02,9.508585929870605469e-02,9.508585929870605469e-02,9.508585929870605469e-02,9.508585929870605469e-02,9.508585929870605469e-02,9.508585929870605469e-02,9.508585929870605469e-02,9.508585929870605469e-02,9.508585929870605469e-02,9.508585929870605469e-02,9.508585929870605469e-02,9.508585929870605469e-02,8.504694700241088867e-02,8.504694700241088867e-02,8.504694700241088867e-02,8.504694700241088867e-02,8.504694700241088867e-02,8.504694700241088867e-02,8.504694700241088867e-02,8.504694700241088867e-02,8.504694700241088867e-02,8.504694700241088867e-02,8.504694700241088867e-02,8.504694700241088867e-02,8.504694700241088867e-02,1.032541543245315552e-01,1.032541543245315552e-01,1.032541543245315552e-01,1.032541543245315552e-01,1.032541543245315552e-01,1.032541543245315552e-01,1.032541543245315552e-01,1.032541543245315552e-01,1.032541543245315552e-01,1.032541543245315552e-01,-3.987433761358261108e-02,-3.987433761358261108e-02,-3.987433761358261108e-02,-3.987433761358261108e-02
-7.410369068384170532e-02,-8.281481266021728516e-02,-8.281481266021728516e-02,-8.281481266021728516e-02,-8.281481266021728516e-02,-8.281481266021728516e-02,-8.281481266021728516e-02,-8.281481266021728516e-02,-8.281481266021728516e-02,-8.281481266021728516e-02,-8.000338077545166016e-02,-8.000338077545166016e-02,-8.000338077545166016e-02,-8.000338077545166016e-02,-8.000338077545166016e-02,-8.000338077545166016e-02,-7.733234763145446777e-02,-7.733234763145446777e-02,-7.733234763145446777e-02,-7.733234763145446777e-02,-6.998435407876968384e-02,-6.998435407876968384e-02,-6.998435407876968384e-02,-6.998435407876968384e-02,-6.998435407876968384e-02,-6.998435407876968384e-02,-6.998435407876968384e-02,-6.998435407876968384e-02,-6.998435407876968384e-02,-6.998435407876968384e-02,-6.998435407876968384e-02,-6.998435407876968384e-02,-5.596357956528663635e-02,-5.596357956528663635e-02,-5.596357956528663635e-02,-5.596357956528663635e-02,-5.596357956528663635e-02,-5.596357956528663635e-02,-5.596357956528663635e-02,-5.596357956528663635e-02,-5.596357956528663635e-02,-5.596357956528663635e-02,-5.596357956528663635e-02,-5.596357956528663635e-02,-5.596357956528663635e-02,-1.006246637552976608e-02,-1.006246637552976608e-02,-1.006246637552976608e-02,-1.006246637552976608e-02,-1.006246637552976608e-02,-1.006246637552976608e-02,-1.006246637552976608e-02,-1.006246637552976608e-02,-1.006246637552976608e-02,-1.006246637552976608e-02,-1.006246637552976608e-02,-1.006246637552976608e-02,-1.006246637552976608e-02,-1.006246637552976608e-02,-3.752880543470382690e-02,9.101354330778121948e-02,9.101354330778121948e-02,9.101354330778121948e-02,9.101354330778121948e-02,9.101354330778121948e-02,9.101354330778121948e-02,9.101354330778121948e-02,9.101354330778121948e-02,9.101354330778121948e-02,9.101354330778121948e-02,9.101354330778121948e-02,9.101354330778121948e-02,9.101354330778121948e-02,9.101354330778121948e-02,9.101354330778121948e-02,7.883881777524948120e-02,7.883881777524948120e-02,7.883881777524948120e-02,7.883881777524948120e-02,7.883881777524948120e-02,7.883881777524948120e-02,7.883881777524948120e-02,7.883881777524948120e-02,7.883881777524948120e-02,7.883881777524948120e-02,7.883881777524948120e-02,7.883881777524948120e-02,7.883881777524948120e-02,7.883881777524948120e-02,6.939130276441574097e-02,6.939130276441574097e-02,6.939130276441574097e-02,6.939130276441574097e-02,6.939130276441574097e-02,6.939130276441574097e-02,6.939130276441574097e-02,6.939130276441574097e-02,6.939130276441574097e-02,6.939130276441574097e-02,6.939130276441574097e-02,6.939130276441574097e-02,6.939130276441574097e-02,8.051943778991699219e-02,8.051943778991699219e-02,8.051943778991699219e-02,8.051943778991699219e-02,8.051943778991699219e-02,8.051943778991699219e-02,8.051943778991699219e-02,8.051943778991699219e-02,8.051943778991699219e-02,8.051943778991699219e-02,-9.125234931707382202e-02,-9.125234931707382202e-02,-9.125234931707382202e-02,-9.125234931707382202e-02
-1.281662583351135254e-01,-1.355709284543991089e-01,-1.355709284543991089e-01,-1.355709284543991089e-01,-1.355709284543991089e-01,-1.355709284543991089e-01,-1.355709284543991089e-01,-1.355709284543991089e-01,-1.355709284543991089e-01,-1.355709284543991089e-01,-1.298079937696456909e-01,-1.298079937696456909e-01,-1.298079937696456909e-01,-1.298079937696456909e-01,-1.298079937696456909e-01,-1.298079937696456909e-01,-1.303044408559799194e-01,-1.303044408559799194e-01,-1.303044408559799194e-01,-1.303044408559799194e-01,-1.219506859779357910e-01,-1.219506859779357910e-01,-1.219506859779357910e-01,-1.219506859779357910e-01,-1.219506859779357910e-01,-1.219506859779357910e-01,-1.219506859779357910e-01,-1.219506859779357910e-01,-1.219506859779357910e-01,-1.219506859779357910e-01,-1.219506859779357910e-01,-1.219506859779357910e-01,-1.090062782168388367e-01,-1.090062782168388367e-01,-1.090062782168388367e-01,-1.090062782168388367e-01,-1.090062782168388367e-01,-1.090062782168388367e-01,-1.090062782168388367e-01,-1.090062782168388367e-01,-1.090062782168388367e-01,-1.090062782168388367e-01,-1.090062782168388367e-01,-1.090062782168388367e-01,-1.090062782168388367e-01,-6.133931875228881836e-02,-6.133931875228881836e-02,-6.133931875228881836e-02,-6.133931875228881836e-02,-6.133931875228881836e-02,-6.133931875228881836e-02,-6.133931875228881836e-02,-6.133931875228881836e-02,-6.133931875228881836e-02,-6.133931875228881836e-02,-6.133931875228881836e-02,-6.133931875228881836e-02,-6.133931875228881836e-02,-6.133931875228881836e-02,-9.455722570419311523e-02,4.904172569513320923e-02,4.904172569513320923e-02,4.904172569513320923e-02,4.904172569513320923e-02,4.904172569513320923e-02,4.904172569513320923e-02,4.904172569513320923e-02,4.904172569513320923e-02,4.904172569513320923e-02,4.904172569513320923e-02,4.904172569513320923e-02,4.904172569513320923e-02,4.904172569513320923e-02,4.904172569513320923e-02,4.904172569513320923e-02,4.041670635342597961e-02,4.041670635342597961e-02,4.041670635342597961e-02,4.041670635342597961e-02,4.041670635342597961e-02,4.041670635342597961e-02,4.041670635342597961e-02,4.041670635342597961e-02,4.041670635342597961e-02,4.041670635342597961e-02,4.041670635342597961e-02,4.041670635342597961e-02,4.041670635342597961e-02,4.041670635342597961e-02,3.348790109157562256e-02,3.348790109157562256e-02,3.348790109157562256e-02,3.348790109157562256e-02,3.348790109157562256e-02,3.348790109157562256e-02,3.348790109157562256e-02,3.348790109157562256e-02,3.348790109157562256e-02,3.348790109157562256e-02,3.348790109157562256e-02,3.348790109157562256e-02,3.348790109157562256e-02,5.127933993935585022e-02,5.127933993935585022e-02,5.127933993935585022e-02,5.127933993935585022e-02,5.127933993935585022e-02,5.127933993935585022e-02,5.127933993935585022e-02,5.127933993935585022e-02,5.127933993935585022e-02,5.127933993935585022e-02,-1.191531866788864136e-01,-1.191531866788864136e-01,-1.191531866788864136e-01,-1.191531866788864136e-01
-1.943460702896118164e-01,-2.019365131855010986e-01,-2.019365131855010986e-01,-2.019365131855010986e-01,-2.019365131855010986e-01,-2.019365131855010986e-01,-2.019365131855010986e-01,-2.019365131855010986e-01,-2.019365131855010986e-01,-2.019365131855010986e-01,-1.873461157083511353e-01,-1.873461157083511353e-01,-1.873461157083511353e-01,-1.873461157083511353e-01,-1.873461157083511353e-01,-1.873461157083511353e-01,-1.941591650247573853e-01,-1.941591650247573853e-01,-1.941591650247573853e-01,-1.941591650247573853e-01,-1.827406883239746094e-01,-1.827406883239746094e-01,-1.827406883239746094e-01,-1.827406883239746094e-01,-1.827406883239746094e-01,-1.827406883239746094e-01,-1.827406883239746094e-01,-1.827406883239746094e-01,-1.827406883239746094e-01,-1.827406883239746094e-01,-1.827406883239746094e-01,-1.827406883239746094e-01,-1.715657711029052734e-01,-1.715657711029052734e-01,-1.715657711029052734e-01,-1.715657711029052734e-01,-1.715657711029052734e-01,-1.715657711029052734e-01,-1.715657711029052734e-01,-1.715657711029052734e-01,-1.715657711029052734e-01,-1.715657711029052734e-01,-1.715657711029052734e-01,-1.715657711029052734e-01,-1.715657711029052734e-01,-1.224688738584518433e-01,-1.224688738584518433e-01,-1.224688738584518433e-01,-1.224688738584518433e-01,-1.224688738584518433e-01,-1.224688738584518433e-01,-1.224688738584518433e-01,-1.224688738584518433e-01,-1.224688738584518433e-01,-1.224688738584518433e-01,-1.224688738584518433e-01,-1.224688738584518433e-01,-1.224688738584518433e-01,-1.224688738584518433e-01,-1.587728857994079590e-01,1.388762262649834156e-03,1.388762262649834156e-03,1.388762262649834156e-03,1.388762262649834156e-03,1.388762262649834156e-03,1.388762262649834156e-03,1.388762262649834156e-03,1.388762262649834156e-03,1.388762262649834156e-03,1.388762262649834156e-03,1.388762262649834156e-03,1.388762262649834156e-03,1.388762262649834156e-03,1.388762262649834156e-03,1.388762262649834156e-03,-5.654283799231052399e-03,-5.654283799231052399e-03,-5.654283799231052399e-03,-5.654283799231052399e-03,-5.654283799231052399e-03,-5.654283799231052399e-03,-5.654283799231052399e-03,-5.654283799231052399e-03,-5.654283799231052399e-03,-5.654283799231052399e-03,-5.654283799231052399e-03,-5.654283799231052399e-03,-5.654283799231052399e-03,-5.654283799231052399e-03,-1.380400918424129486e-02,-1.380400918424129486e-02,-1.380400918424129486e-02,-1.380400918424129486e-02,-1.380400918424129486e-02,-1.380400918424129486e-02,-1.380400918424129486e-02,-1.380400918424129486e-02,-1.380400918424129486e-02,-1.380400918424129486e-02,-1.380400918424129486e-02,-1.380400918424129486e-02,-1.380400918424129486e-02,4.333361051976680756e-03,4.333361051976680756e-03,4.333361051976680756e-03,4.333361051976680756e-03,4.333361051976680756e-03,4.333361051976680756e-03,4.333361051976680756e-03,4.333361051976680756e-03,4.333361051976680756e-03,4.333361051976680756e-03,-1.783785074949264526e-01,-1.783785074949264526e-01,-1.783785074949264526e-01,-1.783785074949264526e-01
-2.421782910823822021e-01,-2.379991114139556885e-01,-2.379991114139556885e-01,-2.379991114139556885e-01,-2.379991114139556885e-01,-2.379991114139556885e-01,-2.379991114139556885e-01,-2.379991114139556885e-01,-2.379991114139556885e-01,-2.379991114139556885e-01,-2.301489561796188354e-01,-2.301489561796188354e-01,-2.301489561796188354e-01,-2.301489561796188354e-01,-2.301489561796188354e-01,-2.301489561796188354e-01,-2.266332209110260010e-01,-2.266332209110260010e-01,-2.266332209110260010e-01,-2.266332209110260010e-01,-2.247962951660156250e-01,-2.247962951660156250e-01,-2.247962951660156250e-01,-2.247962951660156250e-01,-2.247962951660156250e-01,-2.247962951660156250e-01,-2.247962951660156250e-01,-2.247962951660156250e-01,-2.247962951660156250e-01,-2.247962951660156250e-01,-2.247962951660156250e-01,-2.247962951660156250e-01,-2.201672196388244629e-01,-2.201672196388244629e-01,-2.201672196388244629e-01,-2.201672196388244629e-01,-2.201672196388244629e-01,-2.201672196388244629e-01,-2.201672196388244629e-01,-2.201672196388244629e-01,-2.201672196388244629e-01,-2.201672196388244629e-01,-2.201672196388244629e-01,-2.201672196388244629e-01,-2.201672196388244629e-01,-1.617130339145660400e-01,-1.617130339145660400e-01,-1.617130339145660400e-01,-1.617130339145660400e-01,-1.617130339145660400e-01,-1.617130339145660400e-01,-1.617130339145660400e-01,-1.617130339145660400e-01,-1.617130339145660400e-01,-1.617130339145660400e-01,-1.617130339145660400e-01,-1.617130339145660400e-01,-1.617130339145660400e-01,-1.617130339145660400e-01,-1.881854534149169922e-01,-1.341013703495264053e-02,-1.341013703495264053e-02,-1.341013703495264053e-02,-1.341013703495264053e-02,-1.341013703495264053e-02,-1.341013703495264053e-02,-1.341013703495264053e-02,-1.341013703495264053e-02,-1.341013703495264053e-02,-1.341013703495264053e-02,-1.341013703495264053e-02,-1.341013703495264053e-02,-1.341013703495264053e-02,-1.341013703495264053e-02,-1.341013703495264053e-02,-1.504833903163671494e-02,-1.504833903163671494e-02,-1.504833903163671494e-02,-1.504833903163671494e-02,-1.504833903163671494e-02,-1.504833903163671494e-02,-1.504833903163671494e-02,-1.504833903163671494e-02,-1.504833903163671494e-02,-1.504833903163671494e-02,-1.504833903163671494e-02,-1.504833903163671494e-02,-1.504833903163671494e-02,-1.504833903163671494e-02,-2.320970408618450165e-02,-2.320970408618450165e-02,-2.320970408618450165e-02,-2.320970408618450165e-02,-2.320970408618450165e-02,-2.320970408618450165e-02,-2.320970408618450165e-02,-2.320970408618450165e-02,-2.320970408618450165e-02,-2.320970408618450165e-02,-2.320970408618450165e-02,-2.320970408618450165e-02,-2.320970408618450165e-02,-2.901852130889892578e-03,-2.901852130889892578e-03,-2.901852130889892578e-03,-2.901852130889892578e-03,-2.901852130889892578e-03,-2.901852130889892578e-03,-2.901852130889892578e-03,-2.901852130889892578e-03,-2.901852130889892578e-03,-2.901852130889892578e-03,-1.808803230524063110e-01,-1.808803230524063110e-01,-1.808803230524063110e-01,-1.808803230524063110e-01
-2.673984169960021973e-01,-2.575730383396148682e-01,-2.575730383396148682e-01,-2.575730383396148682e-01,-2.575730383396148682e-01,-2.575730383396148682e-01,-2.575730383396148682e-01,-2.575730383396148682e-01,-2.575730383396148682e-01,-2.575730383396148682e-01,-2.510980665683746338e-01,-2.510980665683746338e-01,-2.510980665683746338e-01,-2.510980665683746338e-01,-2.510980665683746338e-01,-2.510980665683746338e-01,-2.475149631500244141e-01,-2.475149631500244141e-01,-2.475149631500244141e-01,-2.475149631500244141e-01,-2.465375214815139771e-01,-2.465375214815139771e-01,-2.465375214815139771e-01,-2.465375214815139771e-01,-2.465375214815139771e-01,-2.465375214815139771e-01,-2.465375214815139771e-01,-2.465375214815139771e-01,-2.465375214815139771e-01,-2.465375214815139771e-01,-2.465375214815139771e-01,-2.465375214815139771e-01,-2.423288822174072266e-01,-2.423288822174072266e-01,-2.423288822174072266e-01,-2.423288822174072266e-01,-2.423288822174072266e-01,-2.423288822174072266e-01,-2.423288822174072266e-01,-2.423288822174072266e-01,-2.423288822174072266e-01,-2.423288822174072266e-01,-2.423288822174072266e-01,-2.423288822174072266e-01,-2.423288822174072266e-01,-1.720478087663650513e-01,-1.720478087663650513e-01,-1.720478087663650513e-01,-1.720478087663650513e-01,-1.720478087663650513e-01,-1.720478087663650513e-01,-1.720478087663650513e-01,-1.720478087663650513e-01,-1.720478087663650513e-01,-1.720478087663650513e-01,-1.720478087663650513e-01,-1.720478087663650513e-01,-1.720478087663650513e-01,-1.720478087663650513e-01,-1.940725296735763550e-01,-1.812659390270709991e-02,-1.812659390270709991e-02,-1.812659390270709991e-02,-1.812659390270709991e-02,-1.812659390270709991e-02,-1.812659390270709991e-02,-1.812659390270709991e-02,-1.812659390270709991e-02,-1.812659390270709991e-02,-1.812659390270709991e-02,-1.812659390270709991e-02,-1.812659390270709991e-02,-1.812659390270709991e-02,-1.812659390270709991e-02,-1.812659390270709991e-02,-2.037923969328403473e-02,-2.037923969328403473e-02,-2.037923969328403473e-02,-2.037923969328403473e-02,-2.037923969328403473e-02,-2.037923969328403473e-02,-2.037923969328403473e-02,-2.037923969328403473e-02,-2.037923969328403473e-02,-2.037923969328403473e-02,-2.037923969328403473e-02,-2.037923969328403473e-02,-2.037923969328403473e-02,-2.037923969328403473e-02,-2.933292835950851440e-02,-2.933292835950851440e-02,-2.933292835950851440e-02,-2.933292835950851440e-02,-2.933292835950851440e-02,-2.933292835950851440e-02,-2.933292835950851440e-02,-2.933292835950851440e-02,-2.933292835950851440e-02,-2.933292835950851440e-02,-2.933292835950851440e-02,-2.933292835950851440e-02,-2.933292835950851440e-02,-2.791901351884007454e-03,-2.791901351884007454e-03,-2.791901351884007454e-03,-2.791901351884007454e-03,-2.791901351884007454e-03,-2.791901351884007454e-03,-2.791901351884007454e-03,-2.791901351884007454e-03,-2.791901351884007454e-03,-2.791901351884007454e-03,-1.664403378963470459e-01,-1.664403378963470459e-01,-1.664403378963470459e-01,-1.664403378963470459e-01
-2.598864734172821045e-01,-2.414048314094543457e-01,-2.414048314094543457e-01,-2.414048314094543457e-01,-2.414048314094543457e-01,-2.414048314094543457e-01,-2.414048314094543457e-01,-2.414048314094543457e-01,-2.414048314094543457e-01,-2.414048314094543457e-01,-2.444821596145629883e-01,-2.444821596145629883e-01,-2.444821596145629883e-01,-2.444821596145629883e-01,-2.444821596145629883e-01,-2.444821596145629883e-01,-2.259200364351272583e-01,-2.259200364351272583e-01,-2.259200364351272583e-01,-2.259200364351272583e-01,-2.329373359680175781e-01,-2.329373359680175781e-01,-2.329373359680175781e-01,-2.329373359680175781e-01,-2.329373359680175781e-01,-2.329373359680175781e-01,-2.329373359680175781e-01,-2.329373359680175781e-01,-2.329373359680175781e-01,-2.329373359680175781e-01,-2.329373359680175781e-01,-2.329373359680175781e-01,-2.215715050697326660e-01,-2.215715050697326660e-01,-2.215715050697326660e-01,-2.215715050697326660e-01,-2.215715050697326660e-01,-2.215715050697326660e-01,-2.215715050697326660e-01,-2.215715050697326660e-01,-2.215715050697326660e-01,-2.215715050697326660e-01,-2.215715050697326660e-01,-2.215715050697326660e-01,-2.215715050697326660e-01,-1.363051086664199829e-01,-1.363051086664199829e-01,-1.363051086664199829e-01,-1.363051086664199829e-01,-1.363051086664199829e-01,-1.363051086664199829e-01,-1.363051086664199829e-01,-1.363051086664199829e-01,-1.363051086664199829e-01,-1.363051086664199829e-01,-1.363051086664199829e-01,-1.363051086664199829e-01,-1.363051086664199829e-01,-1.363051086664199829e-01,-1.520144492387771606e-01,1.174355018883943558e-02,1.174355018883943558e-02,1.174355018883943558e-02,1.174355018883943558e-02,1.174355018883943558e-02,1.174355018883943558e-02,1.174355018883943558e-02,1.174355018883943558e-02,1.174355018883943558e-02,1.174355018883943558e-02,1.174355018883943558e-02,1.174355018883943558e-02,1.174355018883943558e-02,1.174355018883943558e-02,1.174355018883943558e-02,4.284748807549476624e-03,4.284748807549476624e-03,4.284748807549476624e-03,4.284748807549476624e-03,4.284748807549476624e-03,4.284748807549476624e-03,4.284748807549476624e-03,4.284748807549476624e-03,4.284748807549476624e-03,4.284748807549476624e-03,4.284748807549476624e-03,4.284748807549476624e-03,4.284748807549476624e-03,4.284748807549476624e-03,-3.213108750060200691e-03,-3.213108750060200691e-03,-3.213108750060200691e-03,-3.213108750060200691e-03,-3.213108750060200691e-03,-3.213108750060200691e-03,-3.213108750060200691e-03,-3.213108750060200691e-03,-3.213108750060200691e-03,-3.213108750060200691e-03,-3.213108750060200691e-03,-3.213108750060200691e-03,-3.213108750060200691e-03,2.024229243397712708e-02,2.024229243397712708e-02,2.024229243397712708e-02,2.024229243397712708e-02,2.024229243397712708e-02,2.024229243397712708e-02,2.024229243397712708e-02,2.024229243397712708e-02,2.024229243397712708e-02,2.024229243397712708e-02,-1.377908140420913696e-01,-1.377908140420913696e-01,-1.377908140420913696e-01,-1.377908140420913696e-01
-2.228337228298187256e-01,-1.920569390058517456e-01,-1.920569390058517456e-01,-1.920569390058517456e-01,-1.920569390058517456e-01,-1.920569390058517456e-01,-1.920569390058517456e-01,-1.920569390058517456e-01,-1.920569390058517456e-01,-1.920569390058517456e-01,-2.100193649530410767e-01,-2.100193649530410767e-01,-2.100193649530410767e-01,-2.100193649530410767e-01,-2.100193649530410767e-01,-2.100193649530410767e-01,-1.680169850587844849e-01,-1.680169850587844849e-01,-1.680169850587844849e-01,-1.680169850587844849e-01,-1.792062371969223022e-01,-1.792062371969223022e-01,-1.792062371969223022e-01,-1.792062371969223022e-01,-1.792062371969223022e-01,-1.792062371969223022e-01,-1.792062371969223022e-01,-1.792062371969223022e-01,-1.792062371969223022e-01,-1.792062371969223022e-01,-1.792062371969223022e-01,-1.792062371969223022e-01,-1.628578156232833862e-01,-1.628578156232833862e-01,-1.628578156232833862e-01,-1.628578156232833862e-01,-1.628578156232833862e-01,-1.628578156232833862e-01,-1.628578156232833862e-01,-1.628578156232833862e-01,-1.628578156232833862e-01,-1.628578156232833862e-01,-1.628578156232833862e-01,-1.628578156232833862e-01,-1.628578156232833862e-01,-9.003943949937820435e-02,-9.003943949937820435e-02,-9.003943949937820435e-02,-9.003943949937820435e-02,-9.003943949937820435e-02,-9.003943949937820435e-02,-9.003943949937820435e-02,-9.003943949937820435e-02,-9.003943949937820435e-02,-9.003943949937820435e-02,-9.003943949937820435e-02,-9.003943949937820435e-02,-9.003943949937820435e-02,-9.003943949937820435e-02,-1.032088622450828552e-01,3.727421909570693970e-02,3.727421909570693970e-02,3.727421909570693970e-02,3.727421909570693970e-02,3.727421909570693970e-02,3.727421909570693970e-02,3.727421909570693970e-02,3.727421909570693970e-02,3.727421909570693970e-02,3.727421909570693970e-02,3.727421909570693970e-02,3.727421909570693970e-02,3.727421909570693970e-02,3.727421909570693970e-02,3.727421909570693970e-02,2.985272742807865143e-02,2.985272742807865143e-02,2.985272742807865143e-02,2.985272742807865143e-02,2.985272742807865143e-02,2.985272742807865143e-02,2.985272742807865143e-02,2.985272742807865143e-02,2.985272742807865143e-02,2.985272742807865143e-02,2.985272742807865143e-02,2.985272742807865143e-02,2.985272742807865143e-02,2.985272742807865143e-02,2.290810458362102509e-02,2.290810458362102509e-02,2.290810458362102509e-02,2.290810458362102509e-02,2.290810458362102509e-02,2.290810458362102509e-02,2.290810458362102509e-02,2.290810458362102509e-02,2.290810458362102509e-02,2.290810458362102509e-02,2.290810458362102509e-02,2.290810458362102509e-02,2.290810458362102509e-02,4.819515720009803772e-02,4.819515720009803772e-02,4.819515720009803772e-02,4.819515720009803772e-02,4.819515720009803772e-02,4.819515720009803772e-02,4.819515720009803772e-02,4.819515720009803772e-02,4.819515720009803772e-02,4.819515720009803772e-02,-1.075627803802490234e-01,-1.075627803802490234e-01,-1.075627803802490234e-01,-1.075627803802490234e-01
-1.751293390989303589e-01,-1.534597873687744141e-01,-1.534597873687744141e-01,-1.534597873687744141e-01,-1.534597873687744141e-01,-1.534597873687744141e-01,-1.534597873687744141e-01,-1.534597873687744141e-01,-1.534597873687744141e-01,-1.534597873687744141e-01,-1.684389859437942505e-01,-1.684389859437942505e-01,-1.684389859437942505e-01,-1.684389859437942505e-01,-1.684389859437942505e-01,-1.684389859437942505e-01,-1.328395307064056396e-01,-1.328395307064056396e-01,-1.328395307064056396e-01,-1.328395307064056396e-01,-1.390174776315689087e-01,-1.390174776315689087e-01,-1.390174776315689087e-01,-1.390174776315689087e-01,-1.390174776315689087e-01,-1.390174776315689087e-01,-1.390174776315689087e-01,-1.390174776315689087e-01,-1.390174776315689087e-01,-1.390174776315689087e-01,-1.390174776315689087e-01,-1.390174776315689087e-01,-1.179910451173782349e-01,-1.179910451173782349e-01,-1.179910451173782349e-01,-1.179910451173782349e-01,-1.179910451173782349e-01,-1.179910451173782349e-01,-1.179910451173782349e-01,-1.179910451173782349e-01,-1.179910451173782349e-01,-1.179910451173782349e-01,-1.179910451173782349e-01,-1.179910451173782349e-01,-1.179910451173782349e-01,-5.130373686552047729e-02,-5.130373686552047729e-02,-5.130373686552047729e-02,-5.130373686552047729e-02,-5.130373686552047729e-02,-5.130373686552047729e-02,-5.130373686552047729e-02,-5.130373686552047729e-02,-5.130373686552047729e-02,-5.130373686552047729e-02,-5.130373686552047729e-02,-5.130373686552047729e-02,-5.130373686552047729e-02,-5.130373686552047729e-02,-7.816471159458160400e-02,6.180038675665855408e-02,6.180038675665855408e-02,6.180038675665855408e-02,6.180038675665855408e-02,6.180038675665855408e-02,6.180038675665855408e-02,6.180038675665855408e-02,6.180038675665855408e-02,6.180038675665855408e-02,6.180038675665855408e-02,6.180038675665855408e-02,6.180038675665855408e-02,6.180038675665855408e-02,6.180038675665855408e-02,6.180038675665855408e-02,5.256308242678642273e-02,5.256308242678642273e-02,5.256308242678642273e-02,5.256308242678642273e-02,5.256308242678642273e-02,5.256308242678642273e-02,5.256308242678642273e-02,5.256308242678642273e-02,5.256308242678642273e-02,5.256308242678642273e-02,5.256308242678642273e-02,5.256308242678642273e-02,5.256308242678642273e-02,5.256308242678642273e-02,4.259521514177322388e-02,4.259521514177322388e-02,4.259521514177322388e-02,4.259521514177322388e-02,4.259521514177322388e-02,4.259521514177322388e-02,4.259521514177322388e-02,4.259521514177322388e-02,4.259521514177322388e-02,4.259521514177322388e-02,4.259521514177322388e-02,4.259521514177322388e-02,4.259521514177322388e-02,7.200571149587631226e-02,7.200571149587631226e-02,7.200571149587631226e-02,7.200571149587631226e-02,7.200571149587631226e-02,7.200571149587631226e-02,7.200571149587631226e-02,7.200571149587631226e-02,7.200571149587631226e-02,7.200571149587631226e-02,-8.919709920883178711e-02,-8.919709920883178711e-02,-8.919709920883178711e-02,-8.919709920883178711e-02
-1.189326792955398560e-01,-1.024291887879371643e-01,-1.024291887879371643e-01,-1.024291887879371643e-01,-1.024291887879371643e-01,-1.024291887879371643e-01,-1.024291887879371643e-01,-1.024291887879371643e-01,-1.024291887879371643e-01,-1.024291887879371643e-01,-1.141319945454597473e-01,-1.141319945454597473e-01,-1.141319945454597473e-01,-1.141319945454597473e-01,-1.141319945454597473e-01,-1.141319945454597473e-01,-8.701882511377334595e-02,-8.701882511377334595e-02,-8.701882511377334595e-02,-8.701882511377334595e-02,-8.942788094282150269e-02,-8.942788094282150269e-02,-8.942788094282150269e-02,-8.942788094282150269e-02,-8.942788094282150269e-02,-8.942788094282150269e-02,-8.942788094282150269e-02,-8.942788094282150269e-02,-8.942788094282150269e-02,-8.942788094282150269e-02,-8.942788094282150269e-02,-8.942788094282150269e-02,-7.060607522726058960e-02,-7.060607522726058960e-02,-7.060607522726058960e-02,-7.060607522726058960e-02,-7.060607522726058960e-02,-7.060607522726058960e-02,-7.060607522726058960e-02,-7.060607522726058960e-02,-7.060607522726058960e-02,-7.060607522726058960e-02,-7.060607522726058960e-02,-7.060607522726058960e-02,-7.060607522726058960e-02,-1.580184511840343475e-02,-1.580184511840343475e-02,-1.580184511840343475e-02,-1.580184511840343475e-02,-1.580184511840343475e-02,-1.580184511840343475e-02,-1.580184511840343475e-02,-1.580184511840343475e-02,-1.580184511840343475e-02,-1.580184511840343475e-02,-1.580184511840343475e-02,-1.580184511840343475e-02,-1.580184511840343475e-02,-1.580184511840343475e-02,-4.248406738042831421e-02,8.731347322463989258e-02,8.731347322463989258e-02,8.731347322463989258e-02,8.731347322463989258e-02,8.731347322463989258e-02,8.731347322463989258e-02,8.731347322463989258e-02,8.731347322463989258e-02,8.731347322463989258e-02,8.731347322463989258e-02,8.731347322463989258e-02,8.731347322463989258e-02,8.731347322463989258e-02,8.731347322463989258e-02,8.731347322463989258e-02,7.952943444252014160e-02,7.952943444252014160e-02,7.952943444252014160e-02,7.952943444252014160e-02,7.952943444252014160e-02,7.952943444252014160e-02,7.952943444252014160e-02,7.952943444252014160e-02,7.952943444252014160e-02,7.952943444252014160e-02,7.952943444252014160e-02,7.952943444252014160e-02,7.952943444252014160e-02,7.952943444252014160e-02,6.865611672401428223e-02,6.865611672401428223e-02,6.865611672401428223e-02,6.865611672401428223e-02,6.865611672401428223e-02,6.865611672401428223e-02,6.865611672401428223e-02,6.865611672401428223e-02,6.865611672401428223e-02,6.865611672401428223e-02,6.865611672401428223e-02,6.865611672401428223e-02,6.865611672401428223e-02,9.510289132595062256e-02,9.510289132595062256e-02,9.510289132595062256e-02,9.510289132595062256e-02,9.510289132595062256e-02,9.510289132595062256e-02,9.510289132595062256e-02,9.510289132595062256e-02,9.510289132595062256e-02,9.510289132595062256e-02,-6.318036466836929321e-02,-6.318036466836929321e-02,-6.318036466836929321e-02,-6.318036466836929321e-02
-6.873612850904464722e-02,-5.599690601229667664e-02,-5.599690601229667664e-02,-5.599690601229667664e-02,-5.599690601229667664e-02,-5.599690601229667664e-02,-5.599690601229667664e-02,-5.599690601229667664e-02,-5.599690601229667664e-02,-5.599690601229667664e-02,-6.300410628318786621e-02,-6.300410628318786621e-02,-6.300410628318786621e-02,-6.300410628318786621e-02,-6.300410628318786621e-02,-6.300410628318786621e-02,-4.581908509135246277e-02,-4.581908509135246277e-02,-4.581908509135246277e-02,-4.581908509135246277e-02,-4.613507911562919617e-02,-4.613507911562919617e-02,-4.613507911562919617e-02,-4.613507911562919617e-02,-4.613507911562919617e-02,-4.613507911562919617e-02,-4.613507911562919617e-02,-4.613507911562919617e-02,-4.613507911562919617e-02,-4.613507911562919617e-02,-4.613507911562919617e-02,-4.613507911562919617e-02,-3.064161725342273712e-02,-3.064161725342273712e-02,-3.064161725342273712e-02,-3.064161725342273712e-02,-3.064161725342273712e-02,-3.064161725342273712e-02,-3.064161725342273712e-02,-3.064161725342273712e-02,-3.064161725342273712e-02,-3.064161725342273712e-02,-3.064161725342273712e-02,-3.064161725342273712e-02,-3.064161725342273712e-02,1.680930331349372864e-02,1.680930331349372864e-02,1.680930331349372864e-02,1.680930331349372864e-02,1.680930331349372864e-02,1.680930331349372864e-02,1.680930331349372864e-02,1.680930331349372864e-02,1.680930331349372864e-02,1.680930331349372864e-02,1.680930331349372864e-02,1.680930331349372864e-02,1.680930331349372864e-02,1.680930331349372864e-02,-1.153847854584455490e-02,1.163394898176193237e-01,1.163394898176193237e-01,1.163394898176193237e-01,1.163394898176193237e-01,1.163394898176193237e-01,1.163394898176193237e-01,1.163394898176193237e-01,1.163394898176193237e-01,1.163394898176193237e-01,1.163394898176193237e-01,1.163394898176193237e-01,1.163394898176193237e-01,1.163394898176193237e-01,1.163394898176193237e-01,1.163394898176193237e-01,1.062509566545486450e-01,1.062509566545486450e-01,1.062509566545486450e-01,1.062509566545486450e-01,1.062509566545486450e-01,1.062509566545486450e-01,1.062509566545486450e-01,1.062509566545486450e-01,1.062509566545486450e-01,1.062509566545486450e-01,1.062509566545486450e-01,1.062509566545486450e-01,1.062509566545486450e-01,1.062509566545486450e-01,9.427578747272491455e-02,9.427578747272491455e-02,9.427578747272491455e-02,9.427578747272491455e-02,9.427578747272491455e-02,9.427578747272491455e-02,9.427578747272491455e-02,9.427578747272491455e-02,9.427578747272491455e-02,9.427578747272491455e-02,9.427578747272491455e-02,9.427578747272491455e-02,9.427578747272491455e-02,1.187388226389884949e-01,1.187388226389884949e-01,1.187388226389884949e-01,1.187388226389884949e-01,1.187388226389884949e-01,1.187388226389884949e-01,1.187388226389884949e-01,1.187388226389884949e-01,1.187388226389884949e-01,1.187388226389884949e-01,-3.395034372806549072e-02,-3.395034372806549072e-02,-3.395034372806549072e-02,-3.395034372806549072e-02
-5.071615427732467651e-02,-3.935550525784492493e-02,-3.935550525784492493e-02,-3.935550525784492493e-02,-3.935550525784492493e-02,-3.935550525784492493e-02,-3.935550525784492493e-02,-3.935550525784492493e-02,-3.935550525784492493e-02,-3.935550525784492493e-02,-4.259501770138740540e-02,-4.259501770138740540e-02,-4.259501770138740540e-02,-4.259501770138740540e-02,-4.259501770138740540e-02,-4.259501770138740540e-02,-3.116513788700103760e-02,-3.116513788700103760e-02,-3.116513788700103760e-02,-3.116513788700103760e-02,-3.098160028457641602e-02,-3.098160028457641602e-02,-3.098160028457641602e-02,-3.098160028457641602e-02,-3.098160028457641602e-02,-3.098160028457641602e-02,-3.098160028457641602e-02,-3.098160028457641602e-02,-3.098160028457641602e-02,-3.098160028457641602e-02,-3.098160028457641602e-02,-3.098160028457641602e-02,-1.690896227955818176e-02,-1.690896227955818176e-02,-1.690896227955818176e-02,-1.690896227955818176e-02,-1.690896227955818176e-02,-1.690896227955818176e-02,-1.690896227955818176e-02,-1.690896227955818176e-02,-1.690896227955818176e-02,-1.690896227955818176e-02,-1.690896227955818176e-02,-1.690896227955818176e-02,-1.690896227955818176e-02,3.012830018997192383e-02,3.012830018997192383e-02,3.012830018997192383e-02,3.012830018997192383e-02,3.012830018997192383e-02,3.012830018997192383e-02,3.012830018997192383e-02,3.012830018997192383e-02,3.012830018997192383e-02,3.012830018997192383e-02,3.012830018997192383e-02,3.012830018997192383e-02,3.012830018997192383e-02,3.012830018997192383e-02,-1.705975504592061043e-03,1.296474933624267578e-01,1.296474933624267578e-01,1.296474933624267578e-01,1.296474933624267578e-01,1.296474933624267578e-01,1.296474933624267578e-01,1.296474933624267578e-01,1.296474933624267578e-01,1.296474933624267578e-01,1.296474933624267578e-01,1.296474933624267578e-01,1.296474933624267578e-01,1.296474933624267578e-01,1.296474933624267578e-01,1.296474933624267578e-01,1.185041666030883789e-01,1.185041666030883789e-01,1.185041666030883789e-01,1.185041666030883789e-01,1.185041666030883789e-01,1.185041666030883789e-01,1.185041666030883789e-01,1.185041666030883789e-01,1.185041666030883789e-01,1.185041666030883789e-01,1.185041666030883789e-01,1.185041666030883789e-01,1.185041666030883789e-01,1.185041666030883789e-01,1.059697642922401428e-01,1.059697642922401428e-01,1.059697642922401428e-01,1.059697642922401428e-01,1.059697642922401428e-01,1.059697642922401428e-01,1.059697642922401428e-01,1.059697642922401428e-01,1.059697642922401428e-01,1.059697642922401428e-01,1.059697642922401428e-01,1.059697642922401428e-01,1.059697642922401428e-01,1.296378672122955322e-01,1.296378672122955322e-01,1.296378672122955322e-01,1.296378672122955322e-01,1.296378672122955322e-01,1.296378672122955322e-01,1.296378672122955322e-01,1.296378672122955322e-01,1.296378672122955322e-01,1.296378672122955322e-01,-1.888136751949787140e-02,-1.888136751949787140e-02,-1.888136751949787140e-02,-1.888136751949787140e-02
-5.285303667187690735e-02,-4.860222712159156799e-02,-4.860222712159156799e-02,-4.860222712159156799e-02,-4.860222712159156799e-02,-4.860222712159156799e-02,-4.860222712159156799e-02,-4.860222712159156799e-02,-4.860222712159156799e-02,-4.860222712159156799e-02,-4.908832162618637085e-02,-4.908832162618637085e-02,-4.908832162618637085e-02,-4.908832162618637085e-02,-4.908832162618637085e-02,-4.908832162618637085e-02,-4.619906842708587646e-02,-4.619906842708587646e-02,-4.619906842708587646e-02,-4.619906842708587646e-02,-4.359808191657066345e-02,-4.359808191657066345e-02,-4.359808191657066345e-02,-4.359808191657066345e-02,-4.359808191657066345e-02,-4.359808191657066345e-02,-4.359808191657066345e-02,-4.359808191657066345e-02,-4.359808191657066345e-02,-4.359808191657066345e-02,-4.359808191657066345e-02,-4.359808191657066345e-02,-2.797815576195716858e-02,-2.797815576195716858e-02,-2.797815576195716858e-02,-2.797815576195716858e-02,-2.797815576195716858e-02,-2.797815576195716858e-02,-2.797815576195716858e-02,-2.797815576195716858e-02,-2.797815576195716858e-02,-2.797815576195716858e-02,-2.797815576195716858e-02,-2.797815576195716858e-02,-2.797815576195716858e-02,1.958823576569557190e-02,1.958823576569557190e-02,1.958823576569557190e-02,1.958823576569557190e-02,1.958823576569557190e-02,1.958823576569557190e-02,1.958823576569557190e-02,1.958823576569557190e-02,1.958823576569557190e-02,1.958823576569557190e-02,1.958823576569557190e-02,1.958823576569557190e-02,1.958823576569557190e-02,1.958823576569557190e-02,-9.480826556682586670e-03,1.171080917119979858e-01,1.171080917119979858e-01,1.171080917119979858e-01,1.171080917119979858e-01,1.171080917119979858e-01,1.171080917119979858e-01,1.171080917119979858e-01,1.171080917119979858e-01,1.171080917119979858e-01,1.171080917119979858e-01,1.171080917119979858e-01,1.171080917119979858e-01,1.171080917119979858e-01,1.171080917119979858e-01,1.171080917119979858e-01,1.057367622852325439e-01,1.057367622852325439e-01,1.057367622852325439e-01,1.057367622852325439e-01,1.057367622852325439e-01,1.057367622852325439e-01,1.057367622852325439e-01,1.057367622852325439e-01,1.057367622852325439e-01,1.057367622852325439e-01,1.057367622852325439e-01,1.057367622852325439e-01,1.057367622852325439e-01,1.057367622852325439e-01,9.616330265998840332e-02,9.616330265998840332e-02,9.616330265998840332e-02,9.616330265998840332e-02,9.616330265998840332e-02,9.616330265998840332e-02,9.616330265998840332e-02,9.616330265998840332e-02,9.616330265998840332e-02,9.616330265998840332e-02,9.616330265998840332e-02,9.616330265998840332e-02,9.616330265998840332e-02,1.187191009521484375e-01,1.187191009521484375e-01,1.187191009521484375e-01,1.187191009521484375e-01,1.187191009521484375e-01,1.187191009521484375e-01,1.187191009521484375e-01,1.187191009521484375e-01,1.187191009521484375e-01,1.187191009521484375e-01,-2.995060570538043976e-02,-2.995060570538043976e-02,-2.995060570538043976e-02,-2.995060570538043976e-02
-8.311931043863296509e-02,-8.066637068986892700e-02,-8.066637068986892700e-02,-8.066637068986892700e-02,-8.066637068986892700e-02,-8.066637068986892700e-02,-8.066637068986892700e-02,-8.066637068986892700e-02,-8.066637068986892700e-02,-8.066637068986892700e-02,-7.983174175024032593e-02,-7.983174175024032593e-02,-7.983174175024032593e-02,-7.983174175024032593e-02,-7.983174175024032593e-02,-7.983174175024032593e-02,-7.401569932699203491e-02,-7.401569932699203491e-02,-7.401569932699203491e-02,-7.401569932699203491e-02,-6.741810590028762817e-02,-6.741810590028762817e-02,-6.741810590028762817e-02,-6.741810590028762817e-02,-6.741810590028762817e-02,-6.741810590028762817e-02,-6.741810590028762817e-02,-6.741810590028762817e-02,-6.741810590028762817e-02,-6.741810590028762817e-02,-6.741810590028762817e-02,-6.741810590028762817e-02,-4.916933923959732056e-02,-4.916933923959732056e-02,-4.916933923959732056e-02,-4.916933923959732056e-02,-4.916933923959732056e-02,-4.916933923959732056e-02,-4.916933923959732056e-02,-4.916933923959732056e-02,-4.916933923959732056e-02,-4.916933923959732056e-02,-4.916933923959732056e-02,-4.916933923959732056e-02,-4.916933923959732056e-02,3.376317617949098349e-04,3.376317617949098349e-04,3.376317617949098349e-04,3.376317617949098349e-04,3.376317617949098349e-04,3.376317617949098349e-04,3.376317617949098349e-04,3.376317617949098349e-04,3.376317617949098349e-04,3.376317617949098349e-04,3.376317617949098349e-04,3.376317617949098349e-04,3.376317617949098349e-04,3.376317617949098349e-04,-2.055566385388374329e-02,9.943033754825592041e-02,9.943033754825592041e-02,9.943033754825592041e-02,9.943033754825592041e-02,9.943033754825592041e-02,9.943033754825592041e-02,9.943033754825592041e-02,9.943033754825592041e-02,9.943033754825592041e-02,9.943033754825592041e-02,9.943033754825592041e-02,9.943033754825592041e-02,9.943033754825592041e-02,9.943033754825592041e-02,9.943033754825592041e-02,8.942724019289016724e-02,8.942724019289016724e-02,8.942724019289016724e-02,8.942724019289016724e-02,8.942724019289016724e-02,8.942724019289016724e-02,8.942724019289016724e-02,8.942724019289016724e-02,8.942724019289016724e-02,8.942724019289016724e-02,8.942724019289016724e-02,8.942724019289016724e-02,8.942724019289016724e-02,8.942724019289016724e-02,8.153676241636276245e-02,8.153676241636276245e-02,8.153676241636276245e-02,8.153676241636276245e-02,8.153676241636276245e-02,8.153676241636276245e-02,8.153676241636276245e-02,8.153676241636276245e-02,8.153676241636276245e-02,8.153676241636276245e-02,8.153676241636276245e-02,8.153676241636276245e-02,8.153676241636276245e-02,9.723829478025436401e-02,9.723829478025436401e-02,9.723829478025436401e-02,9.723829478025436401e-02,9.723829478025436401e-02,9.723829478025436401e-02,9.723829478025436401e-02,9.723829478025436401e-02,9.723829478025436401e-02,9.723829478025436401e-02,-4.641339555382728577e-02,-4.641339555382728577e-02,-4.641339555382728577e-02,-4.641339555382728577e-02
-1.363548487424850464e-01,-1.272747665643692017e-01,-1.272747665643692017e-01,-1.272747665643692017e-01,-1.272747665643692017e-01,-1.272747665643692017e-01,-1.272747665643692017e-01,-1.272747665643692017e-01,-1.272747665643692017e-01,-1.272747665643692017e-01,-1.274978071451187134e-01,-1.274978071451187134e-01,-1.274978071451187134e-01,-1.274978071451187134e-01,-1.274978071451187134e-01,-1.274978071451187134e-01,-1.144435480237007141e-01,-1.144435480237007141e-01,-1.144435480237007141e-01,-1.144435480237007141e-01,-1.086581051349639893e-01,-1.086581051349639893e-01,-1.086581051349639893e-01,-1.086581051349639893e-01,-1.086581051349639893e-01,-1.086581051349639893e-01,-1.086581051349639893e-01,-1.086581051349639893e-01,-1.086581051349639893e-01,-1.086581051349639893e-01,-1.086581051349639893e-01,-1.086581051349639893e-01,-9.148668497800827026e-02,-9.148668497800827026e-02,-9.148668497800827026e-02,-9.148668497800827026e-02,-9.148668497800827026e-02,-9.148668497800827026e-02,-9.148668497800827026e-02,-9.148668497800827026e-02,-9.148668497800827026e-02,-9.148668497800827026e-02,-9.148668497800827026e-02,-9.148668497800827026e-02,-9.148668497800827026e-02,-3.880297392606735229e-02,-3.880297392606735229e-02,-3.880297392606735229e-02,-3.880297392606735229e-02,-3.880297392606735229e-02,-3.880297392606735229e-02,-3.880297392606735229e-02,-3.880297392606735229e-02,-3.880297392606735229e-02,-3.880297392606735229e-02,-3.880297392606735229e-02,-3.880297392606735229e-02,-3.880297392606735229e-02,-3.880297392606735229e-02,-7.185260206460952759e-02,6.383815407752990723e-02,6.383815407752990723e-02,6.383815407752990723e-02,6.383815407752990723e-02,6.383815407752990723e-02,6.383815407752990723e-02,6.383815407752990723e-02,6.383815407752990723e-02,6.383815407752990723e-02,6.383815407752990723e-02,6.383815407752990723e-02,6.383815407752990723e-02,6.383815407752990723e-02,6.383815407752990723e-02,6.383815407752990723e-02,5.276207998394966125e-02,5.276207998394966125e-02,5.276207998394966125e-02,5.276207998394966125e-02,5.276207998394966125e-02,5.276207998394966125e-02,5.276207998394966125e-02,5.276207998394966125e-02,5.276207998394966125e-02,5.276207998394966125e-02,5.276207998394966125e-02,5.276207998394966125e-02,5.276207998394966125e-02,5.276207998394966125e-02,4.728453233838081360e-02,4.728453233838081360e-02,4.728453233838081360e-02,4.728453233838081360e-02,4.728453233838081360e-02,4.728453233838081360e-02,4.728453233838081360e-02,4.728453233838081360e-02,4.728453233838081360e-02,4.728453233838081360e-02,4.728453233838081360e-02,4.728453233838081360e-02,4.728453233838081360e-02,6.053241714835166931e-02,6.053241714835166931e-02,6.053241714835166931e-02,6.053241714835166931e-02,6.053241714835166931e-02,6.053241714835166931e-02,6.053241714835166931e-02,6.053241714835166931e-02,6.053241714835166931e-02,6.053241714835166931e-02,-1.049263775348663330e-01,-1.049263775348663330e-01,-1.049263775348663330e-01,-1.049263775348663330e-01
