-1.941393613815307617e-01,-1.916127651929855347e-01,-1.916127651929855347e-01,-1.916127651929855347e-01,-1.916127651929855347e-01,-1.884679794311523438e-01,-1.884679794311523438e-01,-1.899559050798416138e-01,-1.899559050798416138e-01,-1.877121776342391968e-01,-1.877121776342391968e-01,-1.890253871679306030e-01,-1.877102106809616089e-01,-1.877102106809616089e-01,-1.893324255943298340e-01,-1.893324255943298340e-01,-1.936965584754943848e-01,-1.936965584754943848e-01,-2.007305473089218140e-01,-1.923029720783233643e-01,-1.923029720783233643e-01,-1.980914920568466187e-01,-1.980914920568466187e-01,-2.069059312343597412e-01,-2.069059312343597412e-01,-2.069059312343597412e-01,-2.069059312343597412e-01,-2.179870754480361938e-01,-2.179870754480361938e-01,-2.179870754480361938e-01,-2.305480837821960449e-01,-2.305480837821960449e-01,-2.431309074163436890e-01,-2.431309074163436890e-01,-2.431309074163436890e-01,-2.544182538986206055e-01,-2.243390828371047974e-01,-2.243390828371047974e-01,-2.243390828371047974e-01,-2.308093905448913574e-01,-2.308093905448913574e-01,-2.343214303255081177e-01,-2.343214303255081177e-01,-2.343214303255081177e-01,-2.343214303255081177e-01,-2.314049899578094482e-01,-2.314049899578094482e-01,-1.984322220087051392e-01,-1.984322220087051392e-01,-1.823325604200363159e-01,-1.823325604200363159e-01,-1.823325604200363159e-01,-1.425844579935073853e-01,-1.425844579935073853e-01,-1.425844579935073853e-01,-1.406141519546508789e-01,-1.406141519546508789e-01,-9.709726274013519287e-02,-9.709726274013519287e-02,-9.709726274013519287e-02,-1.527791917324066162e-01,-1.527791917324066162e-01,-1.527791917324066162e-01,-1.908941566944122314e-01,-1.489744335412979126e-01,-1.489744335412979126e-01,-1.489744335412979126e-01,-1.489744335412979126e-01,-2.005559653043746948e-01,-2.005559653043746948e-01,-1.150590479373931885e-01,-1.150590479373931885e-01,-1.606740802526473999e-01,-1.606740802526473999e-01,-1.606740802526473999e-01,-1.813723146915435791e-01,-1.813723146915435791e-01,-1.813723146915435791e-01,-1.950265020132064819e-01,-1.950265020132064819e-01,-1.950265020132064819e-01,-1.950265020132064819e-01,-2.022900432348251343e-01,-2.022900432348251343e-01,-2.022900432348251343e-01,-2.022900432348251343e-01,-2.113571763038635254e-01,-2.113571763038635254e-01,-2.113571763038635254e-01,-2.096564322710037231e-01,-2.096564322710037231e-01,-2.096564322710037231e-01,-1.841781884431838989e-01,-1.841781884431838989e-01,-1.841781884431838989e-01,-1.301101148128509521e-01,-1.301101148128509521e-01,-1.301101148128509521e-01,-1.301101148128509521e-01,-6.433324515819549561e-02,-6.433324515819549561e-02,-6.433324515819549561e-02,-2.894771285355091095e-03,-1.833943724632263184e-01,-1.833943724632263184e-01,-1.833943724632263184e-01,-1.833943724632263184e-01,-1.052844524383544922e-01,-2.242639660835266113e-01,-2.242639660835266113e-01,-1.419013142585754395e-01,-1.419013142585754395e-01,-2.431975007057189941e-01,-2.431975007057189941e-01
-1.869191825389862061e-01,-1.874084472656250000e-01,-1.874084472656250000e-01,-1.874084472656250000e-01,-1.874084472656250000e-01,-1.847669929265975952e-01,-1.847669929265975952e-01,-1.882865726947784424e-01,-1.882865726947784424e-01,-1.851867735385894775e-01,-1.851867735385894775e-01,-1.895542889833450317e-01,-1.849999725818634033e-01,-1.849999725818634033e-01,-1.884223371744155884e-01,-1.884223371744155884e-01,-1.936215311288833618e-01,-1.936215311288833618e-01,-1.990662962198257446e-01,-1.856099814176559448e-01,-1.856099814176559448e-01,-1.884749978780746460e-01,-1.884749978780746460e-01,-1.914764791727066040e-01,-1.914764791727066040e-01,-1.914764791727066040e-01,-1.914764791727066040e-01,-1.950021237134933472e-01,-1.950021237134933472e-01,-1.950021237134933472e-01,-2.000920474529266357e-01,-2.000920474529266357e-01,-2.083554118871688843e-01,-2.083554118871688843e-01,-2.083554118871688843e-01,-2.202627360820770264e-01,-1.909787803888320923e-01,-1.909787803888320923e-01,-1.909787803888320923e-01,-2.003982961177825928e-01,-2.003982961177825928e-01,-2.115876078605651855e-01,-2.115876078605651855e-01,-2.115876078605651855e-01,-2.115876078605651855e-01,-2.219874411821365356e-01,-2.219874411821365356e-01,-1.866159290075302124e-01,-1.866159290075302124e-01,-1.911582052707672119e-01,-1.911582052707672119e-01,-1.911582052707672119e-01,-1.809250265359878540e-01,-1.809250265359878540e-01,-1.809250265359878540e-01,-1.557927876710891724e-01,-1.557927876710891724e-01,-1.219824180006980896e-01,-1.219824180006980896e-01,-1.219824180006980896e-01,-1.329636126756668091e-01,-1.329636126756668091e-01,-1.329636126756668091e-01,-1.572917848825454712e-01,-1.041325256228446960e-01,-1.041325256228446960e-01,-1.041325256228446960e-01,-1.041325256228446960e-01,-1.695066690444946289e-01,-1.695066690444946289e-01,-6.813526153564453125e-02,-6.813526153564453125e-02,-1.254183501005172729e-01,-1.254183501005172729e-01,-1.254183501005172729e-01,-1.336915343999862671e-01,-1.336915343999862671e-01,-1.336915343999862671e-01,-1.357102245092391968e-01,-1.357102245092391968e-01,-1.357102245092391968e-01,-1.357102245092391968e-01,-1.402592808008193970e-01,-1.402592808008193970e-01,-1.402592808008193970e-01,-1.402592808008193970e-01,-1.508621573448181152e-01,-1.508621573448181152e-01,-1.508621573448181152e-01,-1.640759855508804321e-01,-1.640759855508804321e-01,-1.640759855508804321e-01,-1.480435580015182495e-01,-1.480435580015182495e-01,-1.480435580015182495e-01,-1.005959585309028625e-01,-1.005959585309028625e-01,-1.005959585309028625e-01,-1.005959585309028625e-01,-3.172057867050170898e-02,-3.172057867050170898e-02,-3.172057867050170898e-02,3.757902234792709351e-02,-1.581170111894607544e-01,-1.581170111894607544e-01,-1.581170111894607544e-01,-1.581170111894607544e-01,-7.826031744480133057e-02,-2.002296447753906250e-01,-2.002296447753906250e-01,-1.224918738007545471e-01,-1.224918738007545471e-01,-2.197975516319274902e-01,-2.197975516319274902e-01
-2.261696457862854004e-01,-2.267000675201416016e-01,-2.267000675201416016e-01,-2.267000675201416016e-01,-2.267000675201416016e-01,-2.315281778573989868e-01,-2.315281778573989868e-01,-2.271475791931152344e-01,-2.271475791931152344e-01,-2.327591031789779663e-01,-2.327591031789779663e-01,-2.274858504533767700e-01,-2.336841076612472534e-01,-2.336841076612472534e-01,-2.272775769233703613e-01,-2.272775769233703613e-01,-2.198068648576736450e-01,-2.198068648576736450e-01,-2.125398516654968262e-01,-2.197834253311157227e-01,-2.197834253311157227e-01,-2.119976878166198730e-01,-2.119976878166198730e-01,-2.061219811439514160e-01,-2.061219811439514160e-01,-2.061219811439514160e-01,-2.061219811439514160e-01,-2.050145119428634644e-01,-2.050145119428634644e-01,-2.050145119428634644e-01,-2.082639932632446289e-01,-2.082639932632446289e-01,-2.127242088317871094e-01,-2.127242088317871094e-01,-2.127242088317871094e-01,-2.180514633655548096e-01,-2.083314210176467896e-01,-2.083314210176467896e-01,-2.083314210176467896e-01,-2.160278111696243286e-01,-2.160278111696243286e-01,-2.271520048379898071e-01,-2.271520048379898071e-01,-2.271520048379898071e-01,-2.271520048379898071e-01,-2.383870333433151245e-01,-2.383870333433151245e-01,-2.310664206743240356e-01,-2.310664206743240356e-01,-2.364287525415420532e-01,-2.364287525415420532e-01,-2.364287525415420532e-01,-2.308565825223922729e-01,-2.308565825223922729e-01,-2.308565825223922729e-01,-2.141962796449661255e-01,-2.141962796449661255e-01,-1.812571734189987183e-01,-1.812571734189987183e-01,-1.812571734189987183e-01,-1.768542677164077759e-01,-1.768542677164077759e-01,-1.768542677164077759e-01,-1.972902864217758179e-01,-1.356745213270187378e-01,-1.356745213270187378e-01,-1.356745213270187378e-01,-1.356745213270187378e-01,-1.936806887388229370e-01,-1.936806887388229370e-01,-8.483760058879852295e-02,-8.483760058879852295e-02,-1.323206275701522827e-01,-1.323206275701522827e-01,-1.323206275701522827e-01,-1.402331292629241943e-01,-1.402331292629241943e-01,-1.402331292629241943e-01,-1.426041871309280396e-01,-1.426041871309280396e-01,-1.426041871309280396e-01,-1.426041871309280396e-01,-1.485205590724945068e-01,-1.485205590724945068e-01,-1.485205590724945068e-01,-1.485205590724945068e-01,-1.516727209091186523e-01,-1.516727209091186523e-01,-1.516727209091186523e-01,-1.613771617412567139e-01,-1.613771617412567139e-01,-1.613771617412567139e-01,-1.477063596248626709e-01,-1.477063596248626709e-01,-1.477063596248626709e-01,-1.055801957845687866e-01,-1.055801957845687866e-01,-1.055801957845687866e-01,-1.055801957845687866e-01,-4.614786058664321899e-02,-4.614786058664321899e-02,-4.614786058664321899e-02,2.169174700975418091e-02,-1.557107567787170410e-01,-1.557107567787170410e-01,-1.557107567787170410e-01,-1.557107567787170410e-01,-8.936611562967300415e-02,-1.950886398553848267e-01,-1.950886398553848267e-01,-1.316604167222976685e-01,-1.316604167222976685e-01,-2.090855836868286133e-01,-2.090855836868286133e-01
-2.717093229293823242e-01,-2.693932652473449707e-01,-2.693932652473449707e-01,-2.693932652473449707e-01,-2.693932652473449707e-01,-2.710228264331817627e-01,-2.710228264331817627e-01,-2.659798264503479004e-01,-2.659798264503479004e-01,-2.658126354217529297e-01,-2.658126354217529297e-01,-2.611538469791412354e-01,-2.604244947433471680e-01,-2.604244947433471680e-01,-2.560710608959197998e-01,-2.560710608959197998e-01,-2.510495781898498535e-01,-2.510495781898498535e-01,-2.467732876539230347e-01,-2.473507076501846313e-01,-2.473507076501846313e-01,-2.444445639848709106e-01,-2.444445639848709106e-01,-2.436160594224929810e-01,-2.436160594224929810e-01,-2.436160594224929810e-01,-2.436160594224929810e-01,-2.444571554660797119e-01,-2.444571554660797119e-01,-2.444571554660797119e-01,-2.458204180002212524e-01,-2.458204180002212524e-01,-2.464745938777923584e-01,-2.464745938777923584e-01,-2.464745938777923584e-01,-2.470516413450241089e-01,-2.409569770097732544e-01,-2.409569770097732544e-01,-2.409569770097732544e-01,-2.407209277153015137e-01,-2.407209277153015137e-01,-2.431721091270446777e-01,-2.431721091270446777e-01,-2.431721091270446777e-01,-2.431721091270446777e-01,-2.491040527820587158e-01,-2.491040527820587158e-01,-2.331157773733139038e-01,-2.331157773733139038e-01,-2.345883548259735107e-01,-2.345883548259735107e-01,-2.345883548259735107e-01,-2.180708348751068115e-01,-2.180708348751068115e-01,-2.180708348751068115e-01,-2.068854719400405884e-01,-2.068854719400405884e-01,-1.638507694005966187e-01,-1.638507694005966187e-01,-1.638507694005966187e-01,-1.792883127927780151e-01,-1.792883127927780151e-01,-1.792883127927780151e-01,-2.135851979255676270e-01,-1.470285505056381226e-01,-1.470285505056381226e-01,-1.470285505056381226e-01,-1.470285505056381226e-01,-2.275399118661880493e-01,-2.275399118661880493e-01,-1.049063652753829956e-01,-1.049063652753829956e-01,-1.567272394895553589e-01,-1.567272394895553589e-01,-1.567272394895553589e-01,-1.665178537368774414e-01,-1.665178537368774414e-01,-1.665178537368774414e-01,-1.706498414278030396e-01,-1.706498414278030396e-01,-1.706498414278030396e-01,-1.706498414278030396e-01,-1.796235144138336182e-01,-1.796235144138336182e-01,-1.796235144138336182e-01,-1.796235144138336182e-01,-1.868287771940231323e-01,-1.868287771940231323e-01,-1.868287771940231323e-01,-2.054955512285232544e-01,-2.054955512285232544e-01,-2.054955512285232544e-01,-1.871031224727630615e-01,-1.871031224727630615e-01,-1.871031224727630615e-01,-1.391774117946624756e-01,-1.391774117946624756e-01,-1.391774117946624756e-01,-1.391774117946624756e-01,-7.503493875265121460e-02,-7.503493875265121460e-02,-7.503493875265121460e-02,-4.306966904550790787e-03,-2.063862979412078857e-01,-2.063862979412078857e-01,-2.063862979412078857e-01,-2.063862979412078857e-01,-1.312911808490753174e-01,-2.463046312332153320e-01,-2.463046312332153320e-01,-1.700518727302551270e-01,-1.700518727302551270e-01,-2.627252638339996338e-01,-2.627252638339996338e-01
-2.821680903434753418e-01,-2.802119851112365723e-01,-2.802119851112365723e-01,-2.802119851112365723e-01,-2.802119851112365723e-01,-2.840987741947174072e-01,-2.840987741947174072e-01,-2.796232402324676514e-01,-2.796232402324676514e-01,-2.823033928871154785e-01,-2.823033928871154785e-01,-2.775312960147857666e-01,-2.793282568454742432e-01,-2.793282568454742432e-01,-2.742064297199249268e-01,-2.742064297199249268e-01,-2.698381543159484863e-01,-2.698381543159484863e-01,-2.672293782234191895e-01,-2.691007852554321289e-01,-2.691007852554321289e-01,-2.675943672657012939e-01,-2.675943672657012939e-01,-2.660239636898040771e-01,-2.660239636898040771e-01,-2.660239636898040771e-01,-2.660239636898040771e-01,-2.631795704364776611e-01,-2.631795704364776611e-01,-2.631795704364776611e-01,-2.607601284980773926e-01,-2.607601284980773926e-01,-2.610083222389221191e-01,-2.610083222389221191e-01,-2.610083222389221191e-01,-2.638080716133117676e-01,-2.593984007835388184e-01,-2.593984007835388184e-01,-2.593984007835388184e-01,-2.626517713069915771e-01,-2.626517713069915771e-01,-2.611463665962219238e-01,-2.611463665962219238e-01,-2.611463665962219238e-01,-2.611463665962219238e-01,-2.526660263538360596e-01,-2.526660263538360596e-01,-2.482719570398330688e-01,-2.482719570398330688e-01,-2.301802486181259155e-01,-2.301802486181259155e-01,-2.301802486181259155e-01,-1.885391771793365479e-01,-1.885391771793365479e-01,-1.885391771793365479e-01,-2.048797905445098877e-01,-2.048797905445098877e-01,-1.508519649505615234e-01,-1.508519649505615234e-01,-1.508519649505615234e-01,-2.054884284734725952e-01,-2.054884284734725952e-01,-2.054884284734725952e-01,-2.344674319028854370e-01,-1.740124225616455078e-01,-1.740124225616455078e-01,-1.740124225616455078e-01,-1.740124225616455078e-01,-2.374148517847061157e-01,-2.374148517847061157e-01,-1.391557008028030396e-01,-1.391557008028030396e-01,-1.762951463460922241e-01,-1.762951463460922241e-01,-1.762951463460922241e-01,-1.816694885492324829e-01,-1.816694885492324829e-01,-1.816694885492324829e-01,-1.843248158693313599e-01,-1.843248158693313599e-01,-1.843248158693313599e-01,-1.843248158693313599e-01,-1.834146529436111450e-01,-1.834146529436111450e-01,-1.834146529436111450e-01,-1.834146529436111450e-01,-1.868116259574890137e-01,-1.868116259574890137e-01,-1.868116259574890137e-01,-1.990581750869750977e-01,-1.990581750869750977e-01,-1.990581750869750977e-01,-1.790508925914764404e-01,-1.790508925914764404e-01,-1.790508925914764404e-01,-1.288223713636398315e-01,-1.288223713636398315e-01,-1.288223713636398315e-01,-1.288223713636398315e-01,-6.441520154476165771e-02,-6.441520154476165771e-02,-6.441520154476165771e-02,6.077134050428867340e-03,-1.854159086942672729e-01,-1.854159086942672729e-01,-1.854159086942672729e-01,-1.854159086942672729e-01,-1.109190434217453003e-01,-2.235586047172546387e-01,-2.235586047172546387e-01,-1.498434841632843018e-01,-1.498434841632843018e-01,-2.382159382104873657e-01,-2.382159382104873657e-01
-3.549785315990447998e-01,-3.548173606395721436e-01,-3.548173606395721436e-01,-3.548173606395721436e-01,-3.548173606395721436e-01,-3.600668013095855713e-01,-3.600668013095855713e-01,-3.535728752613067627e-01,-3.535728752613067627e-01,-3.580051958560943604e-01,-3.580051958560943604e-01,-3.505511581897735596e-01,-3.529840409755706787e-01,-3.529840409755706787e-01,-3.467442989349365234e-01,-3.467442989349365234e-01,-3.413017094135284424e-01,-3.413017094135284424e-01,-3.377691209316253662e-01,-3.385628163814544678e-01,-3.385628163814544678e-01,-3.347054123878479004e-01,-3.347054123878479004e-01,-3.304165601730346680e-01,-3.304165601730346680e-01,-3.304165601730346680e-01,-3.304165601730346680e-01,-3.274944424629211426e-01,-3.274944424629211426e-01,-3.274944424629211426e-01,-3.267147243022918701e-01,-3.267147243022918701e-01,-3.261632323265075684e-01,-3.261632323265075684e-01,-3.261632323265075684e-01,-3.249465823173522949e-01,-3.178925216197967529e-01,-3.178925216197967529e-01,-3.178925216197967529e-01,-3.152495324611663818e-01,-3.152495324611663818e-01,-3.118253350257873535e-01,-3.118253350257873535e-01,-3.118253350257873535e-01,-3.118253350257873535e-01,-2.975614070892333984e-01,-2.975614070892333984e-01,-2.941115200519561768e-01,-2.941115200519561768e-01,-2.663384079933166504e-01,-2.663384079933166504e-01,-2.663384079933166504e-01,-2.051023244857788086e-01,-2.051023244857788086e-01,-2.051023244857788086e-01,-2.259718924760818481e-01,-2.259718924760818481e-01,-1.683783084154129028e-01,-1.683783084154129028e-01,-1.683783084154129028e-01,-2.533550262451171875e-01,-2.533550262451171875e-01,-2.533550262451171875e-01,-2.921302020549774170e-01,-2.314273715019226074e-01,-2.314273715019226074e-01,-2.314273715019226074e-01,-2.314273715019226074e-01,-3.193418681621551514e-01,-3.193418681621551514e-01,-2.176056206226348877e-01,-2.176056206226348877e-01,-2.700178623199462891e-01,-2.700178623199462891e-01,-2.700178623199462891e-01,-2.845590114593505859e-01,-2.845590114593505859e-01,-2.845590114593505859e-01,-2.835525572299957275e-01,-2.835525572299957275e-01,-2.835525572299957275e-01,-2.835525572299957275e-01,-2.741272747516632080e-01,-2.741272747516632080e-01,-2.741272747516632080e-01,-2.741272747516632080e-01,-2.729507386684417725e-01,-2.729507386684417725e-01,-2.729507386684417725e-01,-2.717729210853576660e-01,-2.717729210853576660e-01,-2.717729210853576660e-01,-2.471623867750167847e-01,-2.471623867750167847e-01,-2.471623867750167847e-01,-2.019142657518386841e-01,-2.019142657518386841e-01,-2.019142657518386841e-01,-2.019142657518386841e-01,-1.396146118640899658e-01,-1.396146118640899658e-01,-1.396146118640899658e-01,-7.099771499633789062e-02,-2.496353387832641602e-01,-2.496353387832641602e-01,-2.496353387832641602e-01,-2.496353387832641602e-01,-1.792222857475280762e-01,-2.882984578609466553e-01,-2.882984578609466553e-01,-2.119116038084030151e-01,-2.119116038084030151e-01,-2.998304367065429688e-01,-2.998304367065429688e-01
-3.741097152233123779e-01,-3.744179606437683105e-01,-3.744179606437683105e-01,-3.744179606437683105e-01,-3.744179606437683105e-01,-3.889920711517333984e-01,-3.889920711517333984e-01,-3.747691810131072998e-01,-3.747691810131072998e-01,-3.861107230186462402e-01,-3.861107230186462402e-01,-3.737381994724273682e-01,-3.876309990882873535e-01,-3.876309990882873535e-01,-3.751488924026489258e-01,-3.751488924026489258e-01,-3.647859990596771240e-01,-3.647859990596771240e-01,-3.587827682495117188e-01,-3.755725622177124023e-01,-3.755725622177124023e-01,-3.702389895915985107e-01,-3.702389895915985107e-01,-3.610400557518005371e-01,-3.610400557518005371e-01,-3.610400557518005371e-01,-3.610400557518005371e-01,-3.543291985988616943e-01,-3.543291985988616943e-01,-3.543291985988616943e-01,-3.516510426998138428e-01,-3.516510426998138428e-01,-3.447716832160949707e-01,-3.447716832160949707e-01,-3.447716832160949707e-01,-3.343587219715118408e-01,-3.344031572341918945e-01,-3.344031572341918945e-01,-3.344031572341918945e-01,-3.199458718299865723e-01,-3.199458718299865723e-01,-3.089849352836608887e-01,-3.089849352836608887e-01,-3.089849352836608887e-01,-3.089849352836608887e-01,-2.957556545734405518e-01,-2.957556545734405518e-01,-3.100377023220062256e-01,-3.100377023220062256e-01,-2.911188006401062012e-01,-2.911188006401062012e-01,-2.911188006401062012e-01,-2.393829375505447388e-01,-2.393829375505447388e-01,-2.393829375505447388e-01,-2.968406677246093750e-01,-2.968406677246093750e-01,-2.417826801538467407e-01,-2.417826801538467407e-01,-2.417826801538467407e-01,-3.424060046672821045e-01,-3.424060046672821045e-01,-3.424060046672821045e-01,-3.765892088413238525e-01,-3.092261254787445068e-01,-3.092261254787445068e-01,-3.092261254787445068e-01,-3.092261254787445068e-01,-3.653114736080169678e-01,-3.653114736080169678e-01,-2.570943236351013184e-01,-2.570943236351013184e-01,-3.001090586185455322e-01,-3.001090586185455322e-01,-3.001090586185455322e-01,-3.112280666828155518e-01,-3.112280666828155518e-01,-3.112280666828155518e-01,-3.115686476230621338e-01,-3.115686476230621338e-01,-3.115686476230621338e-01,-3.115686476230621338e-01,-3.036064207553863525e-01,-3.036064207553863525e-01,-3.036064207553863525e-01,-3.036064207553863525e-01,-3.075905740261077881e-01,-3.075905740261077881e-01,-3.075905740261077881e-01,-3.169635832309722900e-01,-3.169635832309722900e-01,-3.169635832309722900e-01,-2.967747449874877930e-01,-2.967747449874877930e-01,-2.967747449874877930e-01,-2.456104010343551636e-01,-2.456104010343551636e-01,-2.456104010343551636e-01,-2.456104010343551636e-01,-1.751393079757690430e-01,-1.751393079757690430e-01,-1.751393079757690430e-01,-9.991113841533660889e-02,-2.977329492568969727e-01,-2.977329492568969727e-01,-2.977329492568969727e-01,-2.977329492568969727e-01,-2.192709445953369141e-01,-3.374014794826507568e-01,-3.374014794826507568e-01,-2.543964982032775879e-01,-2.543964982032775879e-01,-3.527688682079315186e-01,-3.527688682079315186e-01
-3.908981084823608398e-01,-3.838109672069549561e-01,-3.838109672069549561e-01,-3.838109672069549561e-01,-3.838109672069549561e-01,-3.985718786716461182e-01,-3.985718786716461182e-01,-3.814207315444946289e-01,-3.814207315444946289e-01,-4.019507765769958496e-01,-4.019507765769958496e-01,-3.850941359996795654e-01,-4.058462977409362793e-01,-4.058462977409362793e-01,-3.911350071430206299e-01,-3.911350071430206299e-01,-3.803652822971343994e-01,-3.803652822971343994e-01,-3.737500607967376709e-01,-3.975901007652282715e-01,-3.975901007652282715e-01,-3.915573358535766602e-01,-3.915573358535766602e-01,-3.848164677619934082e-01,-3.848164677619934082e-01,-3.848164677619934082e-01,-3.848164677619934082e-01,-3.777423799037933350e-01,-3.777423799037933350e-01,-3.777423799037933350e-01,-3.713355064392089844e-01,-3.713355064392089844e-01,-3.635158538818359375e-01,-3.635158538818359375e-01,-3.635158538818359375e-01,-3.517875969409942627e-01,-3.635192513465881348e-01,-3.635192513465881348e-01,-3.635192513465881348e-01,-3.507724106311798096e-01,-3.507724106311798096e-01,-3.329842090606689453e-01,-3.329842090606689453e-01,-3.329842090606689453e-01,-3.329842090606689453e-01,-3.004575073719024658e-01,-3.004575073719024658e-01,-3.476707935333251953e-01,-3.476707935333251953e-01,-3.119715154170989990e-01,-3.119715154170989990e-01,-3.119715154170989990e-01,-2.394549101591110229e-01,-2.394549101591110229e-01,-2.394549101591110229e-01,-3.493625521659851074e-01,-3.493625521659851074e-01,-2.794214487075805664e-01,-2.794214487075805664e-01,-2.794214487075805664e-01,-3.976975679397583008e-01,-3.976975679397583008e-01,-3.976975679397583008e-01,-4.311151504516601562e-01,-3.680683076381683350e-01,-3.680683076381683350e-01,-3.680683076381683350e-01,-3.680683076381683350e-01,-3.922319710254669189e-01,-3.922319710254669189e-01,-2.928516268730163574e-01,-2.928516268730163574e-01,-3.197704851627349854e-01,-3.197704851627349854e-01,-3.197704851627349854e-01,-3.231255114078521729e-01,-3.231255114078521729e-01,-3.231255114078521729e-01,-3.201746046543121338e-01,-3.201746046543121338e-01,-3.201746046543121338e-01,-3.201746046543121338e-01,-3.102068006992340088e-01,-3.102068006992340088e-01,-3.102068006992340088e-01,-3.102068006992340088e-01,-3.144090771675109863e-01,-3.144090771675109863e-01,-3.144090771675109863e-01,-3.259770572185516357e-01,-3.259770572185516357e-01,-3.259770572185516357e-01,-3.053134679794311523e-01,-3.053134679794311523e-01,-3.053134679794311523e-01,-2.483632713556289673e-01,-2.483632713556289673e-01,-2.483632713556289673e-01,-2.483632713556289673e-01,-1.701986491680145264e-01,-1.701986491680145264e-01,-1.701986491680145264e-01,-8.941372483968734741e-02,-3.090735971927642822e-01,-3.090735971927642822e-01,-3.090735971927642822e-01,-3.090735971927642822e-01,-2.212503254413604736e-01,-3.485541939735412598e-01,-3.485541939735412598e-01,-2.573407590389251709e-01,-2.573407590389251709e-01,-3.654922842979431152e-01,-3.654922842979431152e-01
-3.776565790176391602e-01,-3.765594065189361572e-01,-3.765594065189361572e-01,-3.765594065189361572e-01,-3.765594065189361572e-01,-3.807623982429504395e-01,-3.807623982429504395e-01,-3.698088824748992920e-01,-3.698088824748992920e-01,-3.762797415256500244e-01,-3.762797415256500244e-01,-3.603184521198272705e-01,-3.735200762748718262e-01,-3.735200762748718262e-01,-3.558195829391479492e-01,-3.558195829391479492e-01,-3.407970368862152100e-01,-3.407970368862152100e-01,-3.312898278236389160e-01,-3.595385849475860596e-01,-3.595385849475860596e-01,-3.547460436820983887e-01,-3.547460436820983887e-01,-3.536812663078308105e-01,-3.536812663078308105e-01,-3.536812663078308105e-01,-3.536812663078308105e-01,-3.540188670158386230e-01,-3.540188670158386230e-01,-3.540188670158386230e-01,-3.513298630714416504e-01,-3.513298630714416504e-01,-3.458820879459381104e-01,-3.458820879459381104e-01,-3.458820879459381104e-01,-3.373332917690277100e-01,-3.447760045528411865e-01,-3.447760045528411865e-01,-3.447760045528411865e-01,-3.314465880393981934e-01,-3.314465880393981934e-01,-3.043577373027801514e-01,-3.043577373027801514e-01,-3.043577373027801514e-01,-3.043577373027801514e-01,-2.578930854797363281e-01,-2.578930854797363281e-01,-3.211266994476318359e-01,-3.211266994476318359e-01,-2.726739048957824707e-01,-2.726739048957824707e-01,-2.726739048957824707e-01,-1.936428695917129517e-01,-1.936428695917129517e-01,-1.936428695917129517e-01,-3.185620605945587158e-01,-3.185620605945587158e-01,-2.481085062026977539e-01,-2.481085062026977539e-01,-2.481085062026977539e-01,-3.644852936267852783e-01,-3.644852936267852783e-01,-3.644852936267852783e-01,-4.124314486980438232e-01,-3.707496523857116699e-01,-3.707496523857116699e-01,-3.707496523857116699e-01,-3.707496523857116699e-01,-3.858846127986907959e-01,-3.858846127986907959e-01,-3.279701769351959229e-01,-3.279701769351959229e-01,-3.359325528144836426e-01,-3.359325528144836426e-01,-3.359325528144836426e-01,-3.229731917381286621e-01,-3.229731917381286621e-01,-3.229731917381286621e-01,-3.047350943088531494e-01,-3.047350943088531494e-01,-3.047350943088531494e-01,-3.047350943088531494e-01,-2.880442142486572266e-01,-2.880442142486572266e-01,-2.880442142486572266e-01,-2.880442142486572266e-01,-2.883071601390838623e-01,-2.883071601390838623e-01,-2.883071601390838623e-01,-2.921378016471862793e-01,-2.921378016471862793e-01,-2.921378016471862793e-01,-2.693375647068023682e-01,-2.693375647068023682e-01,-2.693375647068023682e-01,-2.119472324848175049e-01,-2.119472324848175049e-01,-2.119472324848175049e-01,-2.119472324848175049e-01,-1.399990320205688477e-01,-1.399990320205688477e-01,-1.399990320205688477e-01,-6.654255837202072144e-02,-2.689801156520843506e-01,-2.689801156520843506e-01,-2.689801156520843506e-01,-2.689801156520843506e-01,-1.848471164703369141e-01,-3.088333010673522949e-01,-3.088333010673522949e-01,-2.182130217552185059e-01,-2.182130217552185059e-01,-3.234053254127502441e-01,-3.234053254127502441e-01
-3.430845439434051514e-01,-3.484499752521514893e-01,-3.484499752521514893e-01,-3.484499752521514893e-01,-3.484499752521514893e-01,-3.542996346950531006e-01,-3.542996346950531006e-01,-3.504464626312255859e-01,-3.504464626312255859e-01,-3.538656234741210938e-01,-3.538656234741210938e-01,-3.446267545223236084e-01,-3.497416377067565918e-01,-3.497416377067565918e-01,-3.388244807720184326e-01,-3.388244807720184326e-01,-3.295127153396606445e-01,-3.295127153396606445e-01,-3.212262988090515137e-01,-3.348168134689331055e-01,-3.348168134689331055e-01,-3.256573975086212158e-01,-3.256573975086212158e-01,-3.146553933620452881e-01,-3.146553933620452881e-01,-3.146553933620452881e-01,-3.146553933620452881e-01,-3.054613173007965088e-01,-3.054613173007965088e-01,-3.054613173007965088e-01,-3.015330135822296143e-01,-3.015330135822296143e-01,-3.038367629051208496e-01,-3.038367629051208496e-01,-3.038367629051208496e-01,-3.059192895889282227e-01,-3.184952139854431152e-01,-3.184952139854431152e-01,-3.184952139854431152e-01,-3.132767677307128906e-01,-3.132767677307128906e-01,-2.925219833850860596e-01,-2.925219833850860596e-01,-2.925219833850860596e-01,-2.925219833850860596e-01,-2.509899735450744629e-01,-2.509899735450744629e-01,-3.102838695049285889e-01,-3.102838695049285889e-01,-2.708340287208557129e-01,-2.708340287208557129e-01,-2.708340287208557129e-01,-2.036090195178985596e-01,-2.036090195178985596e-01,-2.036090195178985596e-01,-3.107483983039855957e-01,-3.107483983039855957e-01,-2.546238303184509277e-01,-2.546238303184509277e-01,-2.546238303184509277e-01,-3.491424918174743652e-01,-3.491424918174743652e-01,-3.491424918174743652e-01,-3.849657773971557617e-01,-3.685702979564666748e-01,-3.685702979564666748e-01,-3.685702979564666748e-01,-3.685702979564666748e-01,-3.756434321403503418e-01,-3.756434321403503418e-01,-3.640299439430236816e-01,-3.640299439430236816e-01,-3.650866150856018066e-01,-3.650866150856018066e-01,-3.650866150856018066e-01,-3.499416112899780273e-01,-3.499416112899780273e-01,-3.499416112899780273e-01,-3.303350210189819336e-01,-3.303350210189819336e-01,-3.303350210189819336e-01,-3.303350210189819336e-01,-3.157639503479003906e-01,-3.157639503479003906e-01,-3.157639503479003906e-01,-3.157639503479003906e-01,-3.082148134708404541e-01,-3.082148134708404541e-01,-3.082148134708404541e-01,-2.975966036319732666e-01,-2.975966036319732666e-01,-2.975966036319732666e-01,-2.714456319808959961e-01,-2.714456319808959961e-01,-2.714456319808959961e-01,-2.219760119915008545e-01,-2.219760119915008545e-01,-2.219760119915008545e-01,-2.219760119915008545e-01,-1.622053831815719604e-01,-1.622053831815719604e-01,-1.622053831815719604e-01,-9.512823820114135742e-02,-2.594573199748992920e-01,-2.594573199748992920e-01,-2.594573199748992920e-01,-2.594573199748992920e-01,-1.874988973140716553e-01,-2.982118129730224609e-01,-2.982118129730224609e-01,-2.129262387752532959e-01,-2.129262387752532959e-01,-3.073079884052276611e-01,-3.073079884052276611e-01
-2.882298827171325684e-01,-3.002556562423706055e-01,-3.002556562423706055e-01,-3.002556562423706055e-01,-3.002556562423706055e-01,-3.108329772949218750e-01,-3.108329772949218750e-01,-3.068411052227020264e-01,-3.068411052227020264e-01,-3.148012757301330566e-01,-3.148012757301330566e-01,-3.075238168239593506e-01,-3.162891566753387451e-01,-3.162891566753387451e-01,-3.073903024196624756e-01,-3.073903024196624756e-01,-2.998237907886505127e-01,-2.998237907886505127e-01,-2.957199811935424805e-01,-3.104328513145446777e-01,-3.104328513145446777e-01,-3.078390955924987793e-01,-3.078390955924987793e-01,-3.035823404788970947e-01,-3.035823404788970947e-01,-3.035823404788970947e-01,-3.035823404788970947e-01,-2.948522865772247314e-01,-2.948522865772247314e-01,-2.948522865772247314e-01,-2.829991281032562256e-01,-2.829991281032562256e-01,-2.727420032024383545e-01,-2.727420032024383545e-01,-2.727420032024383545e-01,-2.651280164718627930e-01,-2.720232009887695312e-01,-2.720232009887695312e-01,-2.720232009887695312e-01,-2.647622525691986084e-01,-2.647622525691986084e-01,-2.451856285333633423e-01,-2.451856285333633423e-01,-2.451856285333633423e-01,-2.451856285333633423e-01,-1.995821446180343628e-01,-1.995821446180343628e-01,-2.687965929508209229e-01,-2.687965929508209229e-01,-2.309129387140274048e-01,-2.309129387140274048e-01,-2.309129387140274048e-01,-1.603851020336151123e-01,-1.603851020336151123e-01,-1.603851020336151123e-01,-2.808578312397003174e-01,-2.808578312397003174e-01,-2.297560870647430420e-01,-2.297560870647430420e-01,-2.297560870647430420e-01,-3.299670815467834473e-01,-3.299670815467834473e-01,-3.299670815467834473e-01,-3.693840503692626953e-01,-3.659221529960632324e-01,-3.659221529960632324e-01,-3.659221529960632324e-01,-3.659221529960632324e-01,-3.877601921558380127e-01,-3.877601921558380127e-01,-3.847554028034210205e-01,-3.847554028034210205e-01,-3.989998400211334229e-01,-3.989998400211334229e-01,-3.989998400211334229e-01,-3.937415182590484619e-01,-3.937415182590484619e-01,-3.937415182590484619e-01,-3.795971572399139404e-01,-3.795971572399139404e-01,-3.795971572399139404e-01,-3.795971572399139404e-01,-3.634567558765411377e-01,-3.634567558765411377e-01,-3.634567558765411377e-01,-3.634567558765411377e-01,-3.507661521434783936e-01,-3.507661521434783936e-01,-3.507661521434783936e-01,-3.366054296493530273e-01,-3.366054296493530273e-01,-3.366054296493530273e-01,-3.136327862739562988e-01,-3.136327862739562988e-01,-3.136327862739562988e-01,-2.764179408550262451e-01,-2.764179408550262451e-01,-2.764179408550262451e-01,-2.764179408550262451e-01,-2.202762961387634277e-01,-2.202762961387634277e-01,-2.202762961387634277e-01,-1.419629156589508057e-01,-2.839156687259674072e-01,-2.839156687259674072e-01,-2.839156687259674072e-01,-2.839156687259674072e-01,-2.137035876512527466e-01,-3.178692162036895752e-01,-3.178692162036895752e-01,-2.277636826038360596e-01,-2.277636826038360596e-01,-3.277928829193115234e-01,-3.277928829193115234e-01
-2.386202663183212280e-01,-2.551933228969573975e-01,-2.551933228969573975e-01,-2.551933228969573975e-01,-2.551933228969573975e-01,-2.810828089714050293e-01,-2.810828089714050293e-01,-2.697928249835968018e-01,-2.697928249835968018e-01,-2.907845675945281982e-01,-2.907845675945281982e-01,-2.784973978996276855e-01,-2.975201308727264404e-01,-2.975201308727264404e-01,-2.845354974269866943e-01,-2.845354974269866943e-01,-2.731620967388153076e-01,-2.731620967388153076e-01,-2.658763825893402100e-01,-2.894285023212432861e-01,-2.894285023212432861e-01,-2.851022481918334961e-01,-2.851022481918334961e-01,-2.831058800220489502e-01,-2.831058800220489502e-01,-2.831058800220489502e-01,-2.831058800220489502e-01,-2.830024361610412598e-01,-2.830024361610412598e-01,-2.830024361610412598e-01,-2.830396592617034912e-01,-2.830396592617034912e-01,-2.794296741485595703e-01,-2.794296741485595703e-01,-2.794296741485595703e-01,-2.679506838321685791e-01,-2.767917513847351074e-01,-2.767917513847351074e-01,-2.767917513847351074e-01,-2.610712647438049316e-01,-2.610712647438049316e-01,-2.305699735879898071e-01,-2.305699735879898071e-01,-2.305699735879898071e-01,-2.305699735879898071e-01,-1.761436909437179565e-01,-1.761436909437179565e-01,-2.549166679382324219e-01,-2.549166679382324219e-01,-2.153232544660568237e-01,-2.153232544660568237e-01,-2.153232544660568237e-01,-1.479189991950988770e-01,-1.479189991950988770e-01,-1.479189991950988770e-01,-2.706333994865417480e-01,-2.706333994865417480e-01,-2.235394269227981567e-01,-2.235394269227981567e-01,-2.235394269227981567e-01,-3.173659145832061768e-01,-3.173659145832061768e-01,-3.173659145832061768e-01,-3.515218198299407959e-01,-3.525192439556121826e-01,-3.525192439556121826e-01,-3.525192439556121826e-01,-3.525192439556121826e-01,-3.725680112838745117e-01,-3.725680112838745117e-01,-3.806746602058410645e-01,-3.806746602058410645e-01,-3.934059441089630127e-01,-3.934059441089630127e-01,-3.934059441089630127e-01,-3.848226070404052734e-01,-3.848226070404052734e-01,-3.848226070404052734e-01,-3.655553460121154785e-01,-3.655553460121154785e-01,-3.655553460121154785e-01,-3.655553460121154785e-01,-3.437047600746154785e-01,-3.437047600746154785e-01,-3.437047600746154785e-01,-3.437047600746154785e-01,-3.265111148357391357e-01,-3.265111148357391357e-01,-3.265111148357391357e-01,-3.090197443962097168e-01,-3.090197443962097168e-01,-3.090197443962097168e-01,-2.816959917545318604e-01,-2.816959917545318604e-01,-2.816959917545318604e-01,-2.385722845792770386e-01,-2.385722845792770386e-01,-2.385722845792770386e-01,-2.385722845792770386e-01,-1.763148307800292969e-01,-1.763148307800292969e-01,-1.763148307800292969e-01,-9.667355567216873169e-02,-2.519977986812591553e-01,-2.519977986812591553e-01,-2.519977986812591553e-01,-2.519977986812591553e-01,-1.742292493581771851e-01,-2.892482578754425049e-01,-2.892482578754425049e-01,-1.961888670921325684e-01,-1.961888670921325684e-01,-3.038134276866912842e-01,-3.038134276866912842e-01
-2.552561759948730469e-01,-2.681342661380767822e-01,-2.681342661380767822e-01,-2.681342661380767822e-01,-2.681342661380767822e-01,-2.874427735805511475e-01,-2.874427735805511475e-01,-2.802562415599822998e-01,-2.802562415599822998e-01,-2.944759130477905273e-01,-2.944759130477905273e-01,-2.839006781578063965e-01,-2.950840890407562256e-01,-2.950840890407562256e-01,-2.825882434844970703e-01,-2.825882434844970703e-01,-2.687396705150604248e-01,-2.687396705150604248e-01,-2.563423812389373779e-01,-2.798135876655578613e-01,-2.798135876655578613e-01,-2.730108201503753662e-01,-2.730108201503753662e-01,-2.680046856403350830e-01,-2.680046856403350830e-01,-2.680046856403350830e-01,-2.680046856403350830e-01,-2.652724683284759521e-01,-2.652724683284759521e-01,-2.652724683284759521e-01,-2.632868587970733643e-01,-2.632868587970733643e-01,-2.606694102287292480e-01,-2.606694102287292480e-01,-2.606694102287292480e-01,-2.545627355575561523e-01,-2.704584002494812012e-01,-2.704584002494812012e-01,-2.704584002494812012e-01,-2.601481378078460693e-01,-2.601481378078460693e-01,-2.369614988565444946e-01,-2.369614988565444946e-01,-2.369614988565444946e-01,-2.369614988565444946e-01,-1.890580058097839355e-01,-1.890580058097839355e-01,-2.651488184928894043e-01,-2.651488184928894043e-01,-2.307426780462265015e-01,-2.307426780462265015e-01,-2.307426780462265015e-01,-1.720203310251235962e-01,-1.720203310251235962e-01,-1.720203310251235962e-01,-2.781041860580444336e-01,-2.781041860580444336e-01,-2.330466806888580322e-01,-2.330466806888580322e-01,-2.330466806888580322e-01,-3.120644390583038330e-01,-3.120644390583038330e-01,-3.120644390583038330e-01,-3.379458189010620117e-01,-3.342685997486114502e-01,-3.342685997486114502e-01,-3.342685997486114502e-01,-3.342685997486114502e-01,-3.428489267826080322e-01,-3.428489267826080322e-01,-3.482214212417602539e-01,-3.482214212417602539e-01,-3.534604907035827637e-01,-3.534604907035827637e-01,-3.534604907035827637e-01,-3.434673845767974854e-01,-3.434673845767974854e-01,-3.434673845767974854e-01,-3.251281380653381348e-01,-3.251281380653381348e-01,-3.251281380653381348e-01,-3.251281380653381348e-01,-3.049111962318420410e-01,-3.049111962318420410e-01,-3.049111962318420410e-01,-3.049111962318420410e-01,-2.897645235061645508e-01,-2.897645235061645508e-01,-2.897645235061645508e-01,-2.745182216167449951e-01,-2.745182216167449951e-01,-2.745182216167449951e-01,-2.510475516319274902e-01,-2.510475516319274902e-01,-2.510475516319274902e-01,-2.131888717412948608e-01,-2.131888717412948608e-01,-2.131888717412948608e-01,-2.131888717412948608e-01,-1.565096378326416016e-01,-1.565096378326416016e-01,-1.565096378326416016e-01,-8.084350079298019409e-02,-2.182649374008178711e-01,-2.182649374008178711e-01,-2.182649374008178711e-01,-2.182649374008178711e-01,-1.495741158723831177e-01,-2.531679868698120117e-01,-2.531679868698120117e-01,-1.670597344636917114e-01,-1.670597344636917114e-01,-2.625428140163421631e-01,-2.625428140163421631e-01
-2.646026611328125000e-01,-2.725395560264587402e-01,-2.725395560264587402e-01,-2.725395560264587402e-01,-2.725395560264587402e-01,-2.825899124145507812e-01,-2.825899124145507812e-01,-2.840875387191772461e-01,-2.840875387191772461e-01,-2.923148274421691895e-01,-2.923148274421691895e-01,-2.924534082412719727e-01,-2.961598634719848633e-01,-2.961598634719848633e-01,-2.934669852256774902e-01,-2.934669852256774902e-01,-2.866969704627990723e-01,-2.866969704627990723e-01,-2.757472395896911621e-01,-2.862727940082550049e-01,-2.862727940082550049e-01,-2.770074307918548584e-01,-2.770074307918548584e-01,-2.686176300048828125e-01,-2.686176300048828125e-01,-2.686176300048828125e-01,-2.686176300048828125e-01,-2.626426219940185547e-01,-2.626426219940185547e-01,-2.626426219940185547e-01,-2.567474544048309326e-01,-2.567474544048309326e-01,-2.448237985372543335e-01,-2.448237985372543335e-01,-2.448237985372543335e-01,-2.174665629863739014e-01,-2.528693079948425293e-01,-2.528693079948425293e-01,-2.528693079948425293e-01,-2.280725985765457153e-01,-2.280725985765457153e-01,-1.935993731021881104e-01,-1.935993731021881104e-01,-1.935993731021881104e-01,-1.935993731021881104e-01,-1.508481502532958984e-01,-1.508481502532958984e-01,-2.523039281368255615e-01,-2.523039281368255615e-01,-2.309591472148895264e-01,-2.309591472148895264e-01,-2.309591472148895264e-01,-1.933840811252593994e-01,-1.933840811252593994e-01,-1.933840811252593994e-01,-2.899424433708190918e-01,-2.899424433708190918e-01,-2.611792981624603271e-01,-2.611792981624603271e-01,-2.611792981624603271e-01,-3.172372877597808838e-01,-3.172372877597808838e-01,-3.172372877597808838e-01,-3.295220136642456055e-01,-3.349418938159942627e-01,-3.349418938159942627e-01,-3.349418938159942627e-01,-3.349418938159942627e-01,-3.325569331645965576e-01,-3.325569331645965576e-01,-3.492593467235565186e-01,-3.492593467235565186e-01,-3.399272561073303223e-01,-3.399272561073303223e-01,-3.399272561073303223e-01,-3.210814893245697021e-01,-3.210814893245697021e-01,-3.210814893245697021e-01,-3.005723357200622559e-01,-3.005723357200622559e-01,-3.005723357200622559e-01,-3.005723357200622559e-01,-2.826811671257019043e-01,-2.826811671257019043e-01,-2.826811671257019043e-01,-2.826811671257019043e-01,-2.703824937343597412e-01,-2.703824937343597412e-01,-2.703824937343597412e-01,-2.576680183410644531e-01,-2.576680183410644531e-01,-2.576680183410644531e-01,-2.359100431203842163e-01,-2.359100431203842163e-01,-2.359100431203842163e-01,-2.016281634569168091e-01,-2.016281634569168091e-01,-2.016281634569168091e-01,-2.016281634569168091e-01,-1.494475603103637695e-01,-1.494475603103637695e-01,-1.494475603103637695e-01,-7.892065495252609253e-02,-2.076082825660705566e-01,-2.076082825660705566e-01,-2.076082825660705566e-01,-2.076082825660705566e-01,-1.425326764583587646e-01,-2.405879199504852295e-01,-2.405879199504852295e-01,-1.637914478778839111e-01,-1.637914478778839111e-01,-2.526126205921173096e-01,-2.526126205921173096e-01
-2.788738012313842773e-01,-2.812201082706451416e-01,-2.812201082706451416e-01,-2.812201082706451416e-01,-2.812201082706451416e-01,-2.825769782066345215e-01,-2.825769782066345215e-01,-2.837451100349426270e-01,-2.837451100349426270e-01,-2.851234078407287598e-01,-2.851234078407287598e-01,-2.851813137531280518e-01,-2.869408130645751953e-01,-2.869408130645751953e-01,-2.867479324340820312e-01,-2.867479324340820312e-01,-2.855247259140014648e-01,-2.855247259140014648e-01,-2.840981781482696533e-01,-2.878265082836151123e-01,-2.878265082836151123e-01,-2.859565019607543945e-01,-2.859565019607543945e-01,-2.845359742641448975e-01,-2.845359742641448975e-01,-2.845359742641448975e-01,-2.845359742641448975e-01,-2.829857170581817627e-01,-2.829857170581817627e-01,-2.829857170581817627e-01,-2.769213914871215820e-01,-2.769213914871215820e-01,-2.563050985336303711e-01,-2.563050985336303711e-01,-2.563050985336303711e-01,-2.100148946046829224e-01,-2.572855949401855469e-01,-2.572855949401855469e-01,-2.572855949401855469e-01,-2.187535762786865234e-01,-2.187535762786865234e-01,-1.756108254194259644e-01,-1.756108254194259644e-01,-1.756108254194259644e-01,-1.756108254194259644e-01,-1.336686760187149048e-01,-1.336686760187149048e-01,-2.466346919536590576e-01,-2.466346919536590576e-01,-2.286048680543899536e-01,-2.286048680543899536e-01,-2.286048680543899536e-01,-1.979371905326843262e-01,-1.979371905326843262e-01,-1.979371905326843262e-01,-2.860607206821441650e-01,-2.860607206821441650e-01,-2.654910683631896973e-01,-2.654910683631896973e-01,-2.654910683631896973e-01,-3.059844374656677246e-01,-3.059844374656677246e-01,-3.059844374656677246e-01,-3.087880313396453857e-01,-3.168766498565673828e-01,-3.168766498565673828e-01,-3.168766498565673828e-01,-3.168766498565673828e-01,-3.113971054553985596e-01,-3.113971054553985596e-01,-3.371517062187194824e-01,-3.371517062187194824e-01,-3.278560936450958252e-01,-3.278560936450958252e-01,-3.278560936450958252e-01,-3.098002374172210693e-01,-3.098002374172210693e-01,-3.098002374172210693e-01,-2.908435165882110596e-01,-2.908435165882110596e-01,-2.908435165882110596e-01,-2.908435165882110596e-01,-2.744314372539520264e-01,-2.744314372539520264e-01,-2.744314372539520264e-01,-2.744314372539520264e-01,-2.632600963115692139e-01,-2.632600963115692139e-01,-2.632600963115692139e-01,-2.528470158576965332e-01,-2.528470158576965332e-01,-2.528470158576965332e-01,-2.359112948179244995e-01,-2.359112948179244995e-01,-2.359112948179244995e-01,-2.059980183839797974e-01,-2.059980183839797974e-01,-2.059980183839797974e-01,-2.059980183839797974e-01,-1.605999916791915894e-01,-1.605999916791915894e-01,-1.605999916791915894e-01,-9.586907178163528442e-02,-2.051715552806854248e-01,-2.051715552806854248e-01,-2.051715552806854248e-01,-2.051715552806854248e-01,-1.469306945800781250e-01,-2.290027141571044922e-01,-2.290027141571044922e-01,-1.644577533006668091e-01,-1.644577533006668091e-01,-2.342790514230728149e-01,-2.342790514230728149e-01
-3.299888372421264648e-01,-3.251437842845916748e-01,-3.251437842845916748e-01,-3.251437842845916748e-01,-3.251437842845916748e-01,-3.256047964096069336e-01,-3.256047964096069336e-01,-3.218500912189483643e-01,-3.218500912189483643e-01,-3.242719769477844238e-01,-3.242719769477844238e-01,-3.215202987194061279e-01,-3.253774940967559814e-01,-3.253774940967559814e-01,-3.235787749290466309e-01,-3.235787749290466309e-01,-3.216200768947601318e-01,-3.216200768947601318e-01,-3.177488744258880615e-01,-3.224578499794006348e-01,-3.224578499794006348e-01,-3.167318105697631836e-01,-3.167318105697631836e-01,-3.065237700939178467e-01,-3.065237700939178467e-01,-3.065237700939178467e-01,-3.065237700939178467e-01,-2.919445633888244629e-01,-2.919445633888244629e-01,-2.919445633888244629e-01,-2.684768736362457275e-01,-2.684768736362457275e-01,-2.285911738872528076e-01,-2.285911738872528076e-01,-2.285911738872528076e-01,-1.681833714246749878e-01,-2.581415474414825439e-01,-2.581415474414825439e-01,-2.581415474414825439e-01,-2.139117717742919922e-01,-2.139117717742919922e-01,-1.723668277263641357e-01,-1.723668277263641357e-01,-1.723668277263641357e-01,-1.723668277263641357e-01,-1.399117708206176758e-01,-1.399117708206176758e-01,-2.690855860710144043e-01,-2.690855860710144043e-01,-2.615563869476318359e-01,-2.615563869476318359e-01,-2.615563869476318359e-01,-2.432867586612701416e-01,-2.432867586612701416e-01,-2.432867586612701416e-01,-3.178983926773071289e-01,-3.178983926773071289e-01,-3.061482608318328857e-01,-3.061482608318328857e-01,-3.061482608318328857e-01,-3.192339241504669189e-01,-3.192339241504669189e-01,-3.192339241504669189e-01,-3.105968534946441650e-01,-3.190778195858001709e-01,-3.190778195858001709e-01,-3.190778195858001709e-01,-3.190778195858001709e-01,-3.113923370838165283e-01,-3.113923370838165283e-01,-3.363311588764190674e-01,-3.363311588764190674e-01,-3.228045403957366943e-01,-3.228045403957366943e-01,-3.228045403957366943e-01,-3.063042461872100830e-01,-3.063042461872100830e-01,-3.063042461872100830e-01,-2.917261123657226562e-01,-2.917261123657226562e-01,-2.917261123657226562e-01,-2.917261123657226562e-01,-2.816379964351654053e-01,-2.816379964351654053e-01,-2.816379964351654053e-01,-2.816379964351654053e-01,-2.758505046367645264e-01,-2.758505046367645264e-01,-2.758505046367645264e-01,-2.698436379432678223e-01,-2.698436379432678223e-01,-2.698436379432678223e-01,-2.613552510738372803e-01,-2.613552510738372803e-01,-2.613552510738372803e-01,-2.404552102088928223e-01,-2.404552102088928223e-01,-2.404552102088928223e-01,-2.404552102088928223e-01,-2.060835957527160645e-01,-2.060835957527160645e-01,-2.060835957527160645e-01,-1.511587053537368774e-01,-2.392757683992385864e-01,-2.392757683992385864e-01,-2.392757683992385864e-01,-2.392757683992385864e-01,-1.904376447200775146e-01,-2.557903528213500977e-01,-2.557903528213500977e-01,-2.025368511676788330e-01,-2.025368511676788330e-01,-2.564762234687805176e-01,-2.564762234687805176e-01
-3.790725469589233398e-01,-3.737169504165649414e-01,-3.737169504165649414e-01,-3.737169504165649414e-01,-3.737169504165649414e-01,-3.823564946651458740e-01,-3.823564946651458740e-01,-3.730011284351348877e-01,-3.730011284351348877e-01,-3.810179531574249268e-01,-3.810179531574249268e-01,-3.736382126808166504e-01,-3.823245167732238770e-01,-3.823245167732238770e-01,-3.764691054821014404e-01,-3.764691054821014404e-01,-3.705970048904418945e-01,-3.705970048904418945e-01,-3.573158979415893555e-01,-3.689450919628143311e-01,-3.689450919628143311e-01,-3.527428507804870605e-01,-3.527428507804870605e-01,-3.363200128078460693e-01,-3.363200128078460693e-01,-3.363200128078460693e-01,-3.363200128078460693e-01,-3.197530806064605713e-01,-3.197530806064605713e-01,-3.197530806064605713e-01,-2.941849231719970703e-01,-2.941849231719970703e-01,-2.449100017547607422e-01,-2.449100017547607422e-01,-2.449100017547607422e-01,-1.735360175371170044e-01,-2.621069550514221191e-01,-2.621069550514221191e-01,-2.621069550514221191e-01,-2.085976153612136841e-01,-2.085976153612136841e-01,-1.618823260068893433e-01,-1.618823260068893433e-01,-1.618823260068893433e-01,-1.618823260068893433e-01,-1.290238499641418457e-01,-1.290238499641418457e-01,-2.712919712066650391e-01,-2.712919712066650391e-01,-2.684915959835052490e-01,-2.684915959835052490e-01,-2.684915959835052490e-01,-2.551817893981933594e-01,-2.551817893981933594e-01,-2.551817893981933594e-01,-3.476574122905731201e-01,-3.476574122905731201e-01,-3.357415795326232910e-01,-3.357415795326232910e-01,-3.357415795326232910e-01,-3.509645164012908936e-01,-3.509645164012908936e-01,-3.509645164012908936e-01,-3.442348241806030273e-01,-3.481944501399993896e-01,-3.481944501399993896e-01,-3.481944501399993896e-01,-3.481944501399993896e-01,-3.455545604228973389e-01,-3.455545604228973389e-01,-3.628498911857604980e-01,-3.628498911857604980e-01,-3.526509404182434082e-01,-3.526509404182434082e-01,-3.526509404182434082e-01,-3.402594029903411865e-01,-3.402594029903411865e-01,-3.402594029903411865e-01,-3.274415135383605957e-01,-3.274415135383605957e-01,-3.274415135383605957e-01,-3.274415135383605957e-01,-3.188197910785675049e-01,-3.188197910785675049e-01,-3.188197910785675049e-01,-3.188197910785675049e-01,-3.149185478687286377e-01,-3.149185478687286377e-01,-3.149185478687286377e-01,-3.063584864139556885e-01,-3.063584864139556885e-01,-3.063584864139556885e-01,-2.920210361480712891e-01,-2.920210361480712891e-01,-2.920210361480712891e-01,-2.600777447223663330e-01,-2.600777447223663330e-01,-2.600777447223663330e-01,-2.600777447223663330e-01,-2.207159548997879028e-01,-2.207159548997879028e-01,-2.207159548997879028e-01,-1.615857779979705811e-01,-2.754457890987396240e-01,-2.754457890987396240e-01,-2.754457890987396240e-01,-2.754457890987396240e-01,-2.170054167509078979e-01,-3.023244738578796387e-01,-3.023244738578796387e-01,-2.380997389554977417e-01,-2.380997389554977417e-01,-3.063356876373291016e-01,-3.063356876373291016e-01
-4.276645481586456299e-01,-4.182089567184448242e-01,-4.182089567184448242e-01,-4.182089567184448242e-01,-4.182089567184448242e-01,-4.265598952770233154e-01,-4.265598952770233154e-01,-4.151997864246368408e-01,-4.151997864246368408e-01,-4.276610016822814941e-01,-4.276610016822814941e-01,-4.205154478549957275e-01,-4.299589097499847412e-01,-4.299589097499847412e-01,-4.238979220390319824e-01,-4.238979220390319824e-01,-4.163887798786163330e-01,-4.163887798786163330e-01,-4.031002819538116455e-01,-4.141331017017364502e-01,-4.141331017017364502e-01,-3.967319726943969727e-01,-3.967319726943969727e-01,-3.769586086273193359e-01,-3.769586086273193359e-01,-3.769586086273193359e-01,-3.769586086273193359e-01,-3.521678745746612549e-01,-3.521678745746612549e-01,-3.521678745746612549e-01,-3.164817094802856445e-01,-3.164817094802856445e-01,-2.651616036891937256e-01,-2.651616036891937256e-01,-2.651616036891937256e-01,-1.973136216402053833e-01,-2.840461134910583496e-01,-2.840461134910583496e-01,-2.840461134910583496e-01,-2.334890216588973999e-01,-2.334890216588973999e-01,-1.889157891273498535e-01,-1.889157891273498535e-01,-1.889157891273498535e-01,-1.889157891273498535e-01,-1.571498066186904907e-01,-1.571498066186904907e-01,-2.993619143962860107e-01,-2.993619143962860107e-01,-2.991417646408081055e-01,-2.991417646408081055e-01,-2.991417646408081055e-01,-2.919417619705200195e-01,-2.919417619705200195e-01,-2.919417619705200195e-01,-3.956099152565002441e-01,-3.956099152565002441e-01,-3.822042644023895264e-01,-3.822042644023895264e-01,-3.822042644023895264e-01,-3.976673185825347900e-01,-3.976673185825347900e-01,-3.976673185825347900e-01,-3.846966326236724854e-01,-3.873733878135681152e-01,-3.873733878135681152e-01,-3.873733878135681152e-01,-3.873733878135681152e-01,-3.844451010227203369e-01,-3.844451010227203369e-01,-3.966296017169952393e-01,-3.966296017169952393e-01,-3.833116888999938965e-01,-3.833116888999938965e-01,-3.833116888999938965e-01,-3.704356551170349121e-01,-3.704356551170349121e-01,-3.704356551170349121e-01,-3.600410223007202148e-01,-3.600410223007202148e-01,-3.600410223007202148e-01,-3.600410223007202148e-01,-3.540956974029541016e-01,-3.540956974029541016e-01,-3.540956974029541016e-01,-3.540956974029541016e-01,-3.533788919448852539e-01,-3.533788919448852539e-01,-3.533788919448852539e-01,-3.483025133609771729e-01,-3.483025133609771729e-01,-3.483025133609771729e-01,-3.324591219425201416e-01,-3.324591219425201416e-01,-3.324591219425201416e-01,-2.975183427333831787e-01,-2.975183427333831787e-01,-2.975183427333831787e-01,-2.975183427333831787e-01,-2.561971843242645264e-01,-2.561971843242645264e-01,-2.561971843242645264e-01,-1.976547986268997192e-01,-3.207828998565673828e-01,-3.207828998565673828e-01,-3.207828998565673828e-01,-3.207828998565673828e-01,-2.588496804237365723e-01,-3.526148498058319092e-01,-3.526148498058319092e-01,-2.790924608707427979e-01,-2.790924608707427979e-01,-3.583624958992004395e-01,-3.583624958992004395e-01
-4.293555617332458496e-01,-4.140371382236480713e-01,-4.140371382236480713e-01,-4.140371382236480713e-01,-4.140371382236480713e-01,-4.224376976490020752e-01,-4.224376976490020752e-01,-4.044960439205169678e-01,-4.044960439205169678e-01,-4.195299148559570312e-01,-4.195299148559570312e-01,-4.075265228748321533e-01,-4.216705262660980225e-01,-4.216705262660980225e-01,-4.141007065773010254e-01,-4.141007065773010254e-01,-4.123017191886901855e-01,-4.123017191886901855e-01,-4.089999198913574219e-01,-4.200470149517059326e-01,-4.200470149517059326e-01,-4.028443396091461182e-01,-4.028443396091461182e-01,-3.676076829433441162e-01,-3.676076829433441162e-01,-3.676076829433441162e-01,-3.676076829433441162e-01,-3.226149976253509521e-01,-3.226149976253509521e-01,-3.226149976253509521e-01,-2.665143609046936035e-01,-2.665143609046936035e-01,-1.961224526166915894e-01,-1.961224526166915894e-01,-1.961224526166915894e-01,-1.169094517827033997e-01,-2.348454892635345459e-01,-2.348454892635345459e-01,-2.348454892635345459e-01,-1.791471093893051147e-01,-1.791471093893051147e-01,-1.358657628297805786e-01,-1.358657628297805786e-01,-1.358657628297805786e-01,-1.358657628297805786e-01,-1.110993698239326477e-01,-1.110993698239326477e-01,-2.779899239540100098e-01,-2.779899239540100098e-01,-2.890617549419403076e-01,-2.890617549419403076e-01,-2.890617549419403076e-01,-2.975714802742004395e-01,-2.975714802742004395e-01,-2.975714802742004395e-01,-4.024253785610198975e-01,-4.024253785610198975e-01,-3.952487707138061523e-01,-3.952487707138061523e-01,-3.952487707138061523e-01,-3.976392745971679688e-01,-3.976392745971679688e-01,-3.976392745971679688e-01,-3.797257840633392334e-01,-3.867619037628173828e-01,-3.867619037628173828e-01,-3.867619037628173828e-01,-3.867619037628173828e-01,-3.836774528026580811e-01,-3.836774528026580811e-01,-4.056089520454406738e-01,-4.056089520454406738e-01,-3.895033597946166992e-01,-3.895033597946166992e-01,-3.895033597946166992e-01,-3.728822767734527588e-01,-3.728822767734527588e-01,-3.728822767734527588e-01,-3.594613373279571533e-01,-3.594613373279571533e-01,-3.594613373279571533e-01,-3.594613373279571533e-01,-3.524532318115234375e-01,-3.524532318115234375e-01,-3.524532318115234375e-01,-3.524532318115234375e-01,-3.494058251380920410e-01,-3.494058251380920410e-01,-3.494058251380920410e-01,-3.430525362491607666e-01,-3.430525362491607666e-01,-3.430525362491607666e-01,-3.259248137474060059e-01,-3.259248137474060059e-01,-3.259248137474060059e-01,-2.903324365615844727e-01,-2.903324365615844727e-01,-2.903324365615844727e-01,-2.903324365615844727e-01,-2.462026029825210571e-01,-2.462026029825210571e-01,-2.462026029825210571e-01,-1.839855164289474487e-01,-3.111875951290130615e-01,-3.111875951290130615e-01,-3.111875951290130615e-01,-3.111875951290130615e-01,-2.488108873367309570e-01,-3.411565124988555908e-01,-3.411565124988555908e-01,-2.671592533588409424e-01,-2.671592533588409424e-01,-3.466087281703948975e-01,-3.466087281703948975e-01
-4.513011276721954346e-01,-4.430530071258544922e-01,-4.430530071258544922e-01,-4.430530071258544922e-01,-4.430530071258544922e-01,-4.451629519462585449e-01,-4.451629519462585449e-01,-4.321203827857971191e-01,-4.321203827857971191e-01,-4.380913376808166504e-01,-4.380913376808166504e-01,-4.273338615894317627e-01,-4.364831149578094482e-01,-4.364831149578094482e-01,-4.351351261138916016e-01,-4.351351261138916016e-01,-4.273478090763092041e-01,-4.273478090763092041e-01,-4.088304638862609863e-01,-4.199979007244110107e-01,-4.199979007244110107e-01,-4.016533195972442627e-01,-4.016533195972442627e-01,-3.899424076080322266e-01,-3.899424076080322266e-01,-3.899424076080322266e-01,-3.899424076080322266e-01,-3.774619102478027344e-01,-3.774619102478027344e-01,-3.774619102478027344e-01,-3.475548624992370605e-01,-3.475548624992370605e-01,-2.882971167564392090e-01,-2.882971167564392090e-01,-2.882971167564392090e-01,-2.023376524448394775e-01,-2.875535190105438232e-01,-2.875535190105438232e-01,-2.875535190105438232e-01,-2.244788259267807007e-01,-2.244788259267807007e-01,-1.686974763870239258e-01,-1.686974763870239258e-01,-1.686974763870239258e-01,-1.686974763870239258e-01,-1.259211152791976929e-01,-1.259211152791976929e-01,-2.762269079685211182e-01,-2.762269079685211182e-01,-2.735705673694610596e-01,-2.735705673694610596e-01,-2.735705673694610596e-01,-2.678269743919372559e-01,-2.678269743919372559e-01,-2.678269743919372559e-01,-3.942706286907196045e-01,-3.942706286907196045e-01,-3.868027627468109131e-01,-3.868027627468109131e-01,-3.868027627468109131e-01,-4.188205301761627197e-01,-4.188205301761627197e-01,-4.188205301761627197e-01,-4.055525958538055420e-01,-4.145573675632476807e-01,-4.145573675632476807e-01,-4.145573675632476807e-01,-4.145573675632476807e-01,-4.094119071960449219e-01,-4.094119071960449219e-01,-4.423460066318511963e-01,-4.423460066318511963e-01,-4.267600476741790771e-01,-4.267600476741790771e-01,-4.267600476741790771e-01,-4.076028466224670410e-01,-4.076028466224670410e-01,-4.076028466224670410e-01,-3.913577198982238770e-01,-3.913577198982238770e-01,-3.913577198982238770e-01,-3.913577198982238770e-01,-3.804777562618255615e-01,-3.804777562618255615e-01,-3.804777562618255615e-01,-3.804777562618255615e-01,-3.732798695564270020e-01,-3.732798695564270020e-01,-3.732798695564270020e-01,-3.644752800464630127e-01,-3.644752800464630127e-01,-3.644752800464630127e-01,-3.450712561607360840e-01,-3.450712561607360840e-01,-3.450712561607360840e-01,-3.093998134136199951e-01,-3.093998134136199951e-01,-3.093998134136199951e-01,-3.093998134136199951e-01,-2.618612349033355713e-01,-2.618612349033355713e-01,-2.618612349033355713e-01,-1.960132569074630737e-01,-3.232048153877258301e-01,-3.232048153877258301e-01,-3.232048153877258301e-01,-3.232048153877258301e-01,-2.584731280803680420e-01,-3.535675406455993652e-01,-3.535675406455993652e-01,-2.730197906494140625e-01,-2.730197906494140625e-01,-3.603841960430145264e-01,-3.603841960430145264e-01
-4.085385799407958984e-01,-4.028879702091217041e-01,-4.028879702091217041e-01,-4.028879702091217041e-01,-4.028879702091217041e-01,-4.017491340637207031e-01,-4.017491340637207031e-01,-3.940301537513732910e-01,-3.940301537513732910e-01,-3.976091146469116211e-01,-3.976091146469116211e-01,-3.864498436450958252e-01,-3.958075046539306641e-01,-3.958075046539306641e-01,-3.803995847702026367e-01,-3.803995847702026367e-01,-3.624086678028106689e-01,-3.624086678028106689e-01,-3.505968153476715088e-01,-3.604648411273956299e-01,-3.604648411273956299e-01,-3.455943763256072998e-01,-3.455943763256072998e-01,-3.294596076011657715e-01,-3.294596076011657715e-01,-3.294596076011657715e-01,-3.294596076011657715e-01,-3.067141771316528320e-01,-3.067141771316528320e-01,-3.067141771316528320e-01,-2.714206278324127197e-01,-2.714206278324127197e-01,-2.174898535013198853e-01,-2.174898535013198853e-01,-2.174898535013198853e-01,-1.387547403573989868e-01,-2.245617955923080444e-01,-2.245617955923080444e-01,-2.245617955923080444e-01,-1.650324463844299316e-01,-1.650324463844299316e-01,-1.117764413356781006e-01,-1.117764413356781006e-01,-1.117764413356781006e-01,-1.117764413356781006e-01,-7.153644412755966187e-02,-7.153644412755966187e-02,-2.379635721445083618e-01,-2.379635721445083618e-01,-2.406546473503112793e-01,-2.406546473503112793e-01,-2.406546473503112793e-01,-2.386595457792282104e-01,-2.386595457792282104e-01,-2.386595457792282104e-01,-3.743053376674652100e-01,-3.743053376674652100e-01,-3.686769306659698486e-01,-3.686769306659698486e-01,-3.686769306659698486e-01,-4.128175079822540283e-01,-4.128175079822540283e-01,-4.128175079822540283e-01,-4.047409594058990479e-01,-4.156529605388641357e-01,-4.156529605388641357e-01,-4.156529605388641357e-01,-4.156529605388641357e-01,-4.087859094142913818e-01,-4.087859094142913818e-01,-4.427603483200073242e-01,-4.427603483200073242e-01,-4.292734861373901367e-01,-4.292734861373901367e-01,-4.292734861373901367e-01,-4.106210172176361084e-01,-4.106210172176361084e-01,-4.106210172176361084e-01,-3.944434523582458496e-01,-3.944434523582458496e-01,-3.944434523582458496e-01,-3.944434523582458496e-01,-3.822836279869079590e-01,-3.822836279869079590e-01,-3.822836279869079590e-01,-3.822836279869079590e-01,-3.734826445579528809e-01,-3.734826445579528809e-01,-3.734826445579528809e-01,-3.638738691806793213e-01,-3.638738691806793213e-01,-3.638738691806793213e-01,-3.486614525318145752e-01,-3.486614525318145752e-01,-3.486614525318145752e-01,-3.223936557769775391e-01,-3.223936557769775391e-01,-3.223936557769775391e-01,-3.223936557769775391e-01,-2.808027267456054688e-01,-2.808027267456054688e-01,-2.808027267456054688e-01,-2.147954404354095459e-01,-3.180664181709289551e-01,-3.180664181709289551e-01,-3.180664181709289551e-01,-3.180664181709289551e-01,-2.631964683532714844e-01,-3.435155749320983887e-01,-3.435155749320983887e-01,-2.698468267917633057e-01,-2.698468267917633057e-01,-3.476653099060058594e-01,-3.476653099060058594e-01
-3.171297609806060791e-01,-3.161489367485046387e-01,-3.161489367485046387e-01,-3.161489367485046387e-01,-3.161489367485046387e-01,-3.289511203765869141e-01,-3.289511203765869141e-01,-3.159740269184112549e-01,-3.159740269184112549e-01,-3.288220167160034180e-01,-3.288220167160034180e-01,-3.130782842636108398e-01,-3.279348909854888916e-01,-3.279348909854888916e-01,-3.066826164722442627e-01,-3.066826164722442627e-01,-2.919579446315765381e-01,-2.919579446315765381e-01,-2.914793491363525391e-01,-2.932328283786773682e-01,-2.932328283786773682e-01,-2.868777215480804443e-01,-2.868777215480804443e-01,-2.829916477203369141e-01,-2.829916477203369141e-01,-2.829916477203369141e-01,-2.829916477203369141e-01,-2.773551642894744873e-01,-2.773551642894744873e-01,-2.773551642894744873e-01,-2.604866027832031250e-01,-2.604866027832031250e-01,-2.198152393102645874e-01,-2.198152393102645874e-01,-2.198152393102645874e-01,-1.450380682945251465e-01,-1.869915127754211426e-01,-1.869915127754211426e-01,-1.869915127754211426e-01,-1.232439503073692322e-01,-1.232439503073692322e-01,-5.898975208401679993e-02,-5.898975208401679993e-02,-5.898975208401679993e-02,-5.898975208401679993e-02,-4.345445428043603897e-03,-4.345445428043603897e-03,-1.597457379102706909e-01,-1.597457379102706909e-01,-1.538722068071365356e-01,-1.538722068071365356e-01,-1.538722068071365356e-01,-1.411230266094207764e-01,-1.411230266094207764e-01,-1.411230266094207764e-01,-3.056752681732177734e-01,-3.056752681732177734e-01,-2.930117547512054443e-01,-2.930117547512054443e-01,-2.930117547512054443e-01,-3.722285032272338867e-01,-3.722285032272338867e-01,-3.722285032272338867e-01,-3.826367259025573730e-01,-3.894164562225341797e-01,-3.894164562225341797e-01,-3.894164562225341797e-01,-3.894164562225341797e-01,-3.854242563247680664e-01,-3.854242563247680664e-01,-4.198182225227355957e-01,-4.198182225227355957e-01,-4.128011167049407959e-01,-4.128011167049407959e-01,-4.128011167049407959e-01,-3.980776667594909668e-01,-3.980776667594909668e-01,-3.980776667594909668e-01,-3.819529712200164795e-01,-3.819529712200164795e-01,-3.819529712200164795e-01,-3.819529712200164795e-01,-3.683810830116271973e-01,-3.683810830116271973e-01,-3.683810830116271973e-01,-3.683810830116271973e-01,-3.583686649799346924e-01,-3.583686649799346924e-01,-3.583686649799346924e-01,-3.478608727455139160e-01,-3.478608727455139160e-01,-3.478608727455139160e-01,-3.332771360874176025e-01,-3.332771360874176025e-01,-3.332771360874176025e-01,-3.075807392597198486e-01,-3.075807392597198486e-01,-3.075807392597198486e-01,-3.075807392597198486e-01,-2.639964222908020020e-01,-2.639964222908020020e-01,-2.639964222908020020e-01,-1.940542906522750854e-01,-2.944892346858978271e-01,-2.944892346858978271e-01,-2.944892346858978271e-01,-2.944892346858978271e-01,-2.408895492553710938e-01,-3.204888105392456055e-01,-3.204888105392456055e-01,-2.453375011682510376e-01,-2.453375011682510376e-01,-3.248806893825531006e-01,-3.248806893825531006e-01
-2.802246510982513428e-01,-2.887805998325347900e-01,-2.887805998325347900e-01,-2.887805998325347900e-01,-2.887805998325347900e-01,-3.064573109149932861e-01,-3.064573109149932861e-01,-2.907898724079132080e-01,-2.907898724079132080e-01,-3.043310344219207764e-01,-3.043310344219207764e-01,-2.860740125179290771e-01,-3.022644519805908203e-01,-3.022644519805908203e-01,-2.892612814903259277e-01,-2.892612814903259277e-01,-2.902873158454895020e-01,-2.902873158454895020e-01,-3.013043999671936035e-01,-3.008432984352111816e-01,-3.008432984352111816e-01,-3.034076094627380371e-01,-3.034076094627380371e-01,-3.062760829925537109e-01,-3.062760829925537109e-01,-3.062760829925537109e-01,-3.062760829925537109e-01,-3.064663708209991455e-01,-3.064663708209991455e-01,-3.064663708209991455e-01,-2.981276810169219971e-01,-2.981276810169219971e-01,-2.721796035766601562e-01,-2.721796035766601562e-01,-2.721796035766601562e-01,-2.190218418836593628e-01,-2.399379312992095947e-01,-2.399379312992095947e-01,-2.399379312992095947e-01,-1.854649782180786133e-01,-1.854649782180786133e-01,-1.222856491804122925e-01,-1.222856491804122925e-01,-1.222856491804122925e-01,-1.222856491804122925e-01,-5.329623445868492126e-02,-5.329623445868492126e-02,-1.771349757909774780e-01,-1.771349757909774780e-01,-1.455891579389572144e-01,-1.455891579389572144e-01,-1.455891579389572144e-01,-1.000564545392990112e-01,-1.000564545392990112e-01,-1.000564545392990112e-01,-2.745728194713592529e-01,-2.745728194713592529e-01,-2.478267997503280640e-01,-2.478267997503280640e-01,-2.478267997503280640e-01,-3.556030094623565674e-01,-3.556030094623565674e-01,-3.556030094623565674e-01,-3.899681270122528076e-01,-3.926484286785125732e-01,-3.926484286785125732e-01,-3.926484286785125732e-01,-3.926484286785125732e-01,-3.985902667045593262e-01,-3.985902667045593262e-01,-4.172202646732330322e-01,-4.172202646732330322e-01,-4.167340695858001709e-01,-4.167340695858001709e-01,-4.167340695858001709e-01,-4.066562354564666748e-01,-4.066562354564666748e-01,-4.066562354564666748e-01,-3.942013382911682129e-01,-3.942013382911682129e-01,-3.942013382911682129e-01,-3.942013382911682129e-01,-3.829684555530548096e-01,-3.829684555530548096e-01,-3.829684555530548096e-01,-3.829684555530548096e-01,-3.754188716411590576e-01,-3.754188716411590576e-01,-3.754188716411590576e-01,-3.663856089115142822e-01,-3.663856089115142822e-01,-3.663856089115142822e-01,-3.532719612121582031e-01,-3.532719612121582031e-01,-3.532719612121582031e-01,-3.305595815181732178e-01,-3.305595815181732178e-01,-3.305595815181732178e-01,-3.305595815181732178e-01,-2.830942869186401367e-01,-2.830942869186401367e-01,-2.830942869186401367e-01,-2.069203853607177734e-01,-3.117391169071197510e-01,-3.117391169071197510e-01,-3.117391169071197510e-01,-3.117391169071197510e-01,-2.547339797019958496e-01,-3.385733664035797119e-01,-3.385733664035797119e-01,-2.534008622169494629e-01,-2.534008622169494629e-01,-3.444576263427734375e-01,-3.444576263427734375e-01
-3.002751469612121582e-01,-2.901683151721954346e-01,-2.901683151721954346e-01,-2.901683151721954346e-01,-2.901683151721954346e-01,-2.993369996547698975e-01,-2.993369996547698975e-01,-2.839123904705047607e-01,-2.839123904705047607e-01,-3.003431260585784912e-01,-3.003431260585784912e-01,-2.836346328258514404e-01,-3.062590956687927246e-01,-3.062590956687927246e-01,-2.896986603736877441e-01,-2.896986603736877441e-01,-2.802345752716064453e-01,-2.802345752716064453e-01,-2.788144946098327637e-01,-2.997578680515289307e-01,-2.997578680515289307e-01,-2.951309382915496826e-01,-2.951309382915496826e-01,-2.923260927200317383e-01,-2.923260927200317383e-01,-2.923260927200317383e-01,-2.923260927200317383e-01,-2.928732335567474365e-01,-2.928732335567474365e-01,-2.928732335567474365e-01,-2.971664965152740479e-01,-2.971664965152740479e-01,-2.989915311336517334e-01,-2.989915311336517334e-01,-2.989915311336517334e-01,-2.821190357208251953e-01,-2.941380143165588379e-01,-2.941380143165588379e-01,-2.941380143165588379e-01,-2.718718051910400391e-01,-2.718718051910400391e-01,-2.301618158817291260e-01,-2.301618158817291260e-01,-2.301618158817291260e-01,-2.301618158817291260e-01,-1.683054864406585693e-01,-1.683054864406585693e-01,-2.718888223171234131e-01,-2.718888223171234131e-01,-2.357194572687149048e-01,-2.357194572687149048e-01,-2.357194572687149048e-01,-1.769733726978302002e-01,-1.769733726978302002e-01,-1.769733726978302002e-01,-3.087817728519439697e-01,-3.087817728519439697e-01,-2.720600068569183350e-01,-2.720600068569183350e-01,-2.720600068569183350e-01,-3.603594005107879639e-01,-3.603594005107879639e-01,-3.603594005107879639e-01,-3.890632987022399902e-01,-3.893799185752868652e-01,-3.893799185752868652e-01,-3.893799185752868652e-01,-3.893799185752868652e-01,-3.956885337829589844e-01,-3.956885337829589844e-01,-4.119346737861633301e-01,-4.119346737861633301e-01,-4.139691889286041260e-01,-4.139691889286041260e-01,-4.139691889286041260e-01,-4.045211672782897949e-01,-4.045211672782897949e-01,-4.045211672782897949e-01,-3.907333612442016602e-01,-3.907333612442016602e-01,-3.907333612442016602e-01,-3.907333612442016602e-01,-3.773798048496246338e-01,-3.773798048496246338e-01,-3.773798048496246338e-01,-3.773798048496246338e-01,-3.679350614547729492e-01,-3.679350614547729492e-01,-3.679350614547729492e-01,-3.567644059658050537e-01,-3.567644059658050537e-01,-3.567644059658050537e-01,-3.394386470317840576e-01,-3.394386470317840576e-01,-3.394386470317840576e-01,-3.122009336948394775e-01,-3.122009336948394775e-01,-3.122009336948394775e-01,-3.122009336948394775e-01,-2.599925994873046875e-01,-2.599925994873046875e-01,-2.599925994873046875e-01,-1.786045134067535400e-01,-2.954142391681671143e-01,-2.954142391681671143e-01,-2.954142391681671143e-01,-2.954142391681671143e-01,-2.316800504922866821e-01,-3.283576369285583496e-01,-3.283576369285583496e-01,-2.383594661951065063e-01,-2.383594661951065063e-01,-3.372563421726226807e-01,-3.372563421726226807e-01
-2.984468340873718262e-01,-3.041134476661682129e-01,-3.041134476661682129e-01,-3.041134476661682129e-01,-3.041134476661682129e-01,-3.081177473068237305e-01,-3.081177473068237305e-01,-3.052032291889190674e-01,-3.052032291889190674e-01,-3.074384629726409912e-01,-3.074384629726409912e-01,-2.975186705589294434e-01,-3.022173047065734863e-01,-3.022173047065734863e-01,-2.886678874492645264e-01,-2.886678874492645264e-01,-2.747179865837097168e-01,-2.747179865837097168e-01,-2.667673826217651367e-01,-2.823316156864166260e-01,-2.823316156864166260e-01,-2.761944830417633057e-01,-2.761944830417633057e-01,-2.720717489719390869e-01,-2.720717489719390869e-01,-2.720717489719390869e-01,-2.720717489719390869e-01,-2.705963850021362305e-01,-2.705963850021362305e-01,-2.705963850021362305e-01,-2.677533626556396484e-01,-2.677533626556396484e-01,-2.501149773597717285e-01,-2.501149773597717285e-01,-2.501149773597717285e-01,-2.023191452026367188e-01,-2.450548559427261353e-01,-2.450548559427261353e-01,-2.450548559427261353e-01,-2.016374766826629639e-01,-2.016374766826629639e-01,-1.454264074563980103e-01,-1.454264074563980103e-01,-1.454264074563980103e-01,-1.454264074563980103e-01,-8.355949819087982178e-02,-8.355949819087982178e-02,-2.202254533767700195e-01,-2.202254533767700195e-01,-1.905166357755661011e-01,-1.905166357755661011e-01,-1.905166357755661011e-01,-1.430973112583160400e-01,-1.430973112583160400e-01,-1.430973112583160400e-01,-2.805439233779907227e-01,-2.805439233779907227e-01,-2.477585375308990479e-01,-2.477585375308990479e-01,-2.477585375308990479e-01,-3.322223424911499023e-01,-3.322223424911499023e-01,-3.322223424911499023e-01,-3.559789657592773438e-01,-3.597808480262756348e-01,-3.597808480262756348e-01,-3.597808480262756348e-01,-3.597808480262756348e-01,-3.643882274627685547e-01,-3.643882274627685547e-01,-3.879939913749694824e-01,-3.879939913749694824e-01,-3.882033228874206543e-01,-3.882033228874206543e-01,-3.882033228874206543e-01,-3.742302656173706055e-01,-3.742302656173706055e-01,-3.742302656173706055e-01,-3.548498153686523438e-01,-3.548498153686523438e-01,-3.548498153686523438e-01,-3.548498153686523438e-01,-3.364342153072357178e-01,-3.364342153072357178e-01,-3.364342153072357178e-01,-3.364342153072357178e-01,-3.232022225856781006e-01,-3.232022225856781006e-01,-3.232022225856781006e-01,-3.104827404022216797e-01,-3.104827404022216797e-01,-3.104827404022216797e-01,-2.928630113601684570e-01,-2.928630113601684570e-01,-2.928630113601684570e-01,-2.644577622413635254e-01,-2.644577622413635254e-01,-2.644577622413635254e-01,-2.644577622413635254e-01,-2.100755423307418823e-01,-2.100755423307418823e-01,-2.100755423307418823e-01,-1.315798163414001465e-01,-2.517517507076263428e-01,-2.517517507076263428e-01,-2.517517507076263428e-01,-2.517517507076263428e-01,-1.922571808099746704e-01,-2.841373980045318604e-01,-2.841373980045318604e-01,-2.052277475595474243e-01,-2.052277475595474243e-01,-2.924152314662933350e-01,-2.924152314662933350e-01
-2.948510944843292236e-01,-2.971011698246002197e-01,-2.971011698246002197e-01,-2.971011698246002197e-01,-2.971011698246002197e-01,-2.974478602409362793e-01,-2.974478602409362793e-01,-2.989861667156219482e-01,-2.989861667156219482e-01,-2.983250617980957031e-01,-2.983250617980957031e-01,-2.950480580329895020e-01,-2.975279688835144043e-01,-2.975279688835144043e-01,-2.905779778957366943e-01,-2.905779778957366943e-01,-2.839829921722412109e-01,-2.839829921722412109e-01,-2.807508707046508789e-01,-2.845100462436676025e-01,-2.845100462436676025e-01,-2.780424952507019043e-01,-2.780424952507019043e-01,-2.687430977821350098e-01,-2.687430977821350098e-01,-2.687430977821350098e-01,-2.687430977821350098e-01,-2.568178772926330566e-01,-2.568178772926330566e-01,-2.568178772926330566e-01,-2.391645163297653198e-01,-2.391645163297653198e-01,-2.066981792449951172e-01,-2.066981792449951172e-01,-2.066981792449951172e-01,-1.500193327665328979e-01,-1.944709271192550659e-01,-1.944709271192550659e-01,-1.944709271192550659e-01,-1.397066116333007812e-01,-1.397066116333007812e-01,-7.918898761272430420e-02,-7.918898761272430420e-02,-7.918898761272430420e-02,-7.918898761272430420e-02,-1.710370555520057678e-02,-1.710370555520057678e-02,-1.637902110815048218e-01,-1.637902110815048218e-01,-1.378081887960433960e-01,-1.378081887960433960e-01,-1.378081887960433960e-01,-9.511113166809082031e-02,-9.511113166809082031e-02,-9.511113166809082031e-02,-2.535214126110076904e-01,-2.535214126110076904e-01,-2.214318662881851196e-01,-2.214318662881851196e-01,-2.214318662881851196e-01,-3.146049976348876953e-01,-3.146049976348876953e-01,-3.146049976348876953e-01,-3.407250344753265381e-01,-3.425424098968505859e-01,-3.425424098968505859e-01,-3.425424098968505859e-01,-3.425424098968505859e-01,-3.472987413406372070e-01,-3.472987413406372070e-01,-3.678361475467681885e-01,-3.678361475467681885e-01,-3.673012554645538330e-01,-3.673012554645538330e-01,-3.673012554645538330e-01,-3.539832532405853271e-01,-3.539832532405853271e-01,-3.539832532405853271e-01,-3.356733322143554688e-01,-3.356733322143554688e-01,-3.356733322143554688e-01,-3.356733322143554688e-01,-3.182658553123474121e-01,-3.182658553123474121e-01,-3.182658553123474121e-01,-3.182658553123474121e-01,-3.062050938606262207e-01,-3.062050938606262207e-01,-3.062050938606262207e-01,-2.919388413429260254e-01,-2.919388413429260254e-01,-2.919388413429260254e-01,-2.693137526512145996e-01,-2.693137526512145996e-01,-2.693137526512145996e-01,-2.329504936933517456e-01,-2.329504936933517456e-01,-2.329504936933517456e-01,-2.329504936933517456e-01,-1.743422597646713257e-01,-1.743422597646713257e-01,-1.743422597646713257e-01,-9.635506570339202881e-02,-2.362789660692214966e-01,-2.362789660692214966e-01,-2.362789660692214966e-01,-2.362789660692214966e-01,-1.655082106590270996e-01,-2.705594897270202637e-01,-2.705594897270202637e-01,-1.837061494588851929e-01,-1.837061494588851929e-01,-2.834577560424804688e-01,-2.834577560424804688e-01
-2.910341918468475342e-01,-2.886671125888824463e-01,-2.886671125888824463e-01,-2.886671125888824463e-01,-2.886671125888824463e-01,-2.936781048774719238e-01,-2.936781048774719238e-01,-2.866377234458923340e-01,-2.866377234458923340e-01,-2.934344112873077393e-01,-2.934344112873077393e-01,-2.851239442825317383e-01,-2.945969700813293457e-01,-2.945969700813293457e-01,-2.862237393856048584e-01,-2.862237393856048584e-01,-2.823064029216766357e-01,-2.823064029216766357e-01,-2.824204862117767334e-01,-2.881283164024353027e-01,-2.881283164024353027e-01,-2.834860980510711670e-01,-2.834860980510711670e-01,-2.786787450313568115e-01,-2.786787450313568115e-01,-2.786787450313568115e-01,-2.786787450313568115e-01,-2.765649557113647461e-01,-2.765649557113647461e-01,-2.765649557113647461e-01,-2.741691172122955322e-01,-2.741691172122955322e-01,-2.622124850749969482e-01,-2.622124850749969482e-01,-2.622124850749969482e-01,-2.271142452955245972e-01,-2.433433532714843750e-01,-2.433433532714843750e-01,-2.433433532714843750e-01,-2.068078964948654175e-01,-2.068078964948654175e-01,-1.546216309070587158e-01,-1.546216309070587158e-01,-1.546216309070587158e-01,-1.546216309070587158e-01,-8.459226787090301514e-02,-8.459226787090301514e-02,-2.133185267448425293e-01,-2.133185267448425293e-01,-1.693825423717498779e-01,-1.693825423717498779e-01,-1.693825423717498779e-01,-9.660151600837707520e-02,-9.660151600837707520e-02,-9.660151600837707520e-02,-2.586934864521026611e-01,-2.586934864521026611e-01,-2.070777863264083862e-01,-2.070777863264083862e-01,-2.070777863264083862e-01,-3.167532980442047119e-01,-3.167532980442047119e-01,-3.167532980442047119e-01,-3.535582423210144043e-01,-3.486184775829315186e-01,-3.486184775829315186e-01,-3.486184775829315186e-01,-3.486184775829315186e-01,-3.568043708801269531e-01,-3.568043708801269531e-01,-3.625527024269104004e-01,-3.625527024269104004e-01,-3.665790855884552002e-01,-3.665790855884552002e-01,-3.665790855884552002e-01,-3.580782711505889893e-01,-3.580782711505889893e-01,-3.580782711505889893e-01,-3.452099561691284180e-01,-3.452099561691284180e-01,-3.452099561691284180e-01,-3.452099561691284180e-01,-3.305944800376892090e-01,-3.305944800376892090e-01,-3.305944800376892090e-01,-3.305944800376892090e-01,-3.199268877506256104e-01,-3.199268877506256104e-01,-3.199268877506256104e-01,-3.092129230499267578e-01,-3.092129230499267578e-01,-3.092129230499267578e-01,-2.947427034378051758e-01,-2.947427034378051758e-01,-2.947427034378051758e-01,-2.657302618026733398e-01,-2.657302618026733398e-01,-2.657302618026733398e-01,-2.657302618026733398e-01,-2.102743238210678101e-01,-2.102743238210678101e-01,-2.102743238210678101e-01,-1.254941672086715698e-01,-2.465910762548446655e-01,-2.465910762548446655e-01,-2.465910762548446655e-01,-2.465910762548446655e-01,-1.747232675552368164e-01,-2.734833061695098877e-01,-2.734833061695098877e-01,-1.840502470731735229e-01,-1.840502470731735229e-01,-2.827486097812652588e-01,-2.827486097812652588e-01
-3.056786656379699707e-01,-3.029606342315673828e-01,-3.029606342315673828e-01,-3.029606342315673828e-01,-3.029606342315673828e-01,-3.046462535858154297e-01,-3.046462535858154297e-01,-2.992124855518341064e-01,-2.992124855518341064e-01,-3.023834228515625000e-01,-3.023834228515625000e-01,-2.967551052570343018e-01,-3.019438683986663818e-01,-3.019438683986663818e-01,-2.957640290260314941e-01,-2.957640290260314941e-01,-2.911771535873413086e-01,-2.911771535873413086e-01,-2.873986661434173584e-01,-2.933602631092071533e-01,-2.933602631092071533e-01,-2.855352461338043213e-01,-2.855352461338043213e-01,-2.756098806858062744e-01,-2.756098806858062744e-01,-2.756098806858062744e-01,-2.756098806858062744e-01,-2.655912637710571289e-01,-2.655912637710571289e-01,-2.655912637710571289e-01,-2.494207024574279785e-01,-2.494207024574279785e-01,-2.202688753604888916e-01,-2.202688753604888916e-01,-2.202688753604888916e-01,-1.717644333839416504e-01,-2.001448273658752441e-01,-2.001448273658752441e-01,-2.001448273658752441e-01,-1.506170928478240967e-01,-1.506170928478240967e-01,-9.350597858428955078e-02,-9.350597858428955078e-02,-9.350597858428955078e-02,-9.350597858428955078e-02,-2.914054505527019501e-02,-2.914054505527019501e-02,-1.626173704862594604e-01,-1.626173704862594604e-01,-1.252997219562530518e-01,-1.252997219562530518e-01,-1.252997219562530518e-01,-6.640712916851043701e-02,-6.640712916851043701e-02,-6.640712916851043701e-02,-2.324462532997131348e-01,-2.324462532997131348e-01,-1.878905594348907471e-01,-1.878905594348907471e-01,-1.878905594348907471e-01,-2.918898165225982666e-01,-2.918898165225982666e-01,-2.918898165225982666e-01,-3.196161091327667236e-01,-3.152637183666229248e-01,-3.152637183666229248e-01,-3.152637183666229248e-01,-3.152637183666229248e-01,-3.141267895698547363e-01,-3.141267895698547363e-01,-3.376484811305999756e-01,-3.376484811305999756e-01,-3.417472839355468750e-01,-3.417472839355468750e-01,-3.417472839355468750e-01,-3.286331295967102051e-01,-3.286331295967102051e-01,-3.286331295967102051e-01,-3.070030510425567627e-01,-3.070030510425567627e-01,-3.070030510425567627e-01,-3.070030510425567627e-01,-2.838903367519378662e-01,-2.838903367519378662e-01,-2.838903367519378662e-01,-2.838903367519378662e-01,-2.654128372669219971e-01,-2.654128372669219971e-01,-2.654128372669219971e-01,-2.485762834548950195e-01,-2.485762834548950195e-01,-2.485762834548950195e-01,-2.222786545753479004e-01,-2.222786545753479004e-01,-2.222786545753479004e-01,-1.755782812833786011e-01,-1.755782812833786011e-01,-1.755782812833786011e-01,-1.755782812833786011e-01,-1.107437312602996826e-01,-1.107437312602996826e-01,-1.107437312602996826e-01,-2.806613221764564514e-02,-1.954087466001510620e-01,-1.954087466001510620e-01,-1.954087466001510620e-01,-1.954087466001510620e-01,-1.105993837118148804e-01,-2.308352440595626831e-01,-2.308352440595626831e-01,-1.391217559576034546e-01,-1.391217559576034546e-01,-2.463994026184082031e-01,-2.463994026184082031e-01
-3.750351071357727051e-01,-3.707371652126312256e-01,-3.707371652126312256e-01,-3.707371652126312256e-01,-3.707371652126312256e-01,-3.780243992805480957e-01,-3.780243992805480957e-01,-3.655686676502227783e-01,-3.655686676502227783e-01,-3.742530941963195801e-01,-3.742530941963195801e-01,-3.619361221790313721e-01,-3.739231526851654053e-01,-3.739231526851654053e-01,-3.614566028118133545e-01,-3.614566028118133545e-01,-3.528820872306823730e-01,-3.528820872306823730e-01,-3.476546108722686768e-01,-3.658624589443206787e-01,-3.658624589443206787e-01,-3.520620167255401611e-01,-3.520620167255401611e-01,-3.364953994750976562e-01,-3.364953994750976562e-01,-3.364953994750976562e-01,-3.364953994750976562e-01,-3.314152657985687256e-01,-3.314152657985687256e-01,-3.314152657985687256e-01,-3.148033320903778076e-01,-3.148033320903778076e-01,-2.952295839786529541e-01,-2.952295839786529541e-01,-2.952295839786529541e-01,-2.736614048480987549e-01,-2.786763012409210205e-01,-2.786763012409210205e-01,-2.786763012409210205e-01,-2.525691986083984375e-01,-2.525691986083984375e-01,-2.194154411554336548e-01,-2.194154411554336548e-01,-2.194154411554336548e-01,-2.194154411554336548e-01,-1.670300364494323730e-01,-1.670300364494323730e-01,-2.500100135803222656e-01,-2.500100135803222656e-01,-2.079933136701583862e-01,-2.079933136701583862e-01,-2.079933136701583862e-01,-1.415665596723556519e-01,-1.415665596723556519e-01,-1.415665596723556519e-01,-2.805895805358886719e-01,-2.805895805358886719e-01,-2.300281822681427002e-01,-2.300281822681427002e-01,-2.300281822681427002e-01,-3.297482430934906006e-01,-3.297482430934906006e-01,-3.297482430934906006e-01,-3.539866507053375244e-01,-3.467860817909240723e-01,-3.467860817909240723e-01,-3.467860817909240723e-01,-3.467860817909240723e-01,-3.415555655956268311e-01,-3.415555655956268311e-01,-3.569521903991699219e-01,-3.569521903991699219e-01,-3.578157126903533936e-01,-3.578157126903533936e-01,-3.578157126903533936e-01,-3.467728197574615479e-01,-3.467728197574615479e-01,-3.467728197574615479e-01,-3.293173909187316895e-01,-3.293173909187316895e-01,-3.293173909187316895e-01,-3.293173909187316895e-01,-3.124754428863525391e-01,-3.124754428863525391e-01,-3.124754428863525391e-01,-3.124754428863525391e-01,-2.991676032543182373e-01,-2.991676032543182373e-01,-2.991676032543182373e-01,-2.853108346462249756e-01,-2.853108346462249756e-01,-2.853108346462249756e-01,-2.641279995441436768e-01,-2.641279995441436768e-01,-2.641279995441436768e-01,-2.235054969787597656e-01,-2.235054969787597656e-01,-2.235054969787597656e-01,-2.235054969787597656e-01,-1.694823056459426880e-01,-1.694823056459426880e-01,-1.694823056459426880e-01,-9.466196596622467041e-02,-2.419394254684448242e-01,-2.419394254684448242e-01,-2.419394254684448242e-01,-2.419394254684448242e-01,-1.707845628261566162e-01,-2.779051959514617920e-01,-2.779051959514617920e-01,-1.956685930490493774e-01,-1.956685930490493774e-01,-2.875480353832244873e-01,-2.875480353832244873e-01
-4.518808722496032715e-01,-4.448948502540588379e-01,-4.448948502540588379e-01,-4.448948502540588379e-01,-4.448948502540588379e-01,-4.561778008937835693e-01,-4.561778008937835693e-01,-4.368487000465393066e-01,-4.368487000465393066e-01,-4.523259103298187256e-01,-4.523259103298187256e-01,-4.333636760711669922e-01,-4.544009566307067871e-01,-4.544009566307067871e-01,-4.377755522727966309e-01,-4.377755522727966309e-01,-4.228265881538391113e-01,-4.228265881538391113e-01,-4.123325645923614502e-01,-4.414726495742797852e-01,-4.414726495742797852e-01,-4.339382052421569824e-01,-4.339382052421569824e-01,-4.276068508625030518e-01,-4.276068508625030518e-01,-4.276068508625030518e-01,-4.276068508625030518e-01,-4.216196238994598389e-01,-4.216196238994598389e-01,-4.216196238994598389e-01,-4.140104651451110840e-01,-4.140104651451110840e-01,-3.961304128170013428e-01,-3.961304128170013428e-01,-3.961304128170013428e-01,-3.736346065998077393e-01,-3.913791477680206299e-01,-3.913791477680206299e-01,-3.913791477680206299e-01,-3.730528950691223145e-01,-3.730528950691223145e-01,-3.586438298225402832e-01,-3.586438298225402832e-01,-3.586438298225402832e-01,-3.586438298225402832e-01,-3.291433155536651611e-01,-3.291433155536651611e-01,-4.045338630676269531e-01,-4.045338630676269531e-01,-3.828627467155456543e-01,-3.828627467155456543e-01,-3.828627467155456543e-01,-3.289761841297149658e-01,-3.289761841297149658e-01,-3.289761841297149658e-01,-4.110350310802459717e-01,-4.110350310802459717e-01,-3.759251832962036133e-01,-3.759251832962036133e-01,-3.759251832962036133e-01,-4.199625551700592041e-01,-4.199625551700592041e-01,-4.199625551700592041e-01,-4.177908599376678467e-01,-4.197949767112731934e-01,-4.197949767112731934e-01,-4.197949767112731934e-01,-4.197949767112731934e-01,-4.104903936386108398e-01,-4.104903936386108398e-01,-4.149479269981384277e-01,-4.149479269981384277e-01,-4.048090279102325439e-01,-4.048090279102325439e-01,-4.048090279102325439e-01,-3.935068547725677490e-01,-3.935068547725677490e-01,-3.935068547725677490e-01,-3.839472234249114990e-01,-3.839472234249114990e-01,-3.839472234249114990e-01,-3.839472234249114990e-01,-3.753579556941986084e-01,-3.753579556941986084e-01,-3.753579556941986084e-01,-3.753579556941986084e-01,-3.690549731254577637e-01,-3.690549731254577637e-01,-3.690549731254577637e-01,-3.617456257343292236e-01,-3.617456257343292236e-01,-3.617456257343292236e-01,-3.470380604267120361e-01,-3.470380604267120361e-01,-3.470380604267120361e-01,-3.150419890880584717e-01,-3.150419890880584717e-01,-3.150419890880584717e-01,-3.150419890880584717e-01,-2.693999111652374268e-01,-2.693999111652374268e-01,-2.693999111652374268e-01,-1.935005486011505127e-01,-3.198731541633605957e-01,-3.198731541633605957e-01,-3.198731541633605957e-01,-3.198731541633605957e-01,-2.558036446571350098e-01,-3.457946777343750000e-01,-3.457946777343750000e-01,-2.709452211856842041e-01,-2.709452211856842041e-01,-3.500886857509613037e-01,-3.500886857509613037e-01
-4.769099354743957520e-01,-4.682300090789794922e-01,-4.682300090789794922e-01,-4.682300090789794922e-01,-4.682300090789794922e-01,-4.682997465133666992e-01,-4.682997465133666992e-01,-4.589501619338989258e-01,-4.589501619338989258e-01,-4.647550284862518311e-01,-4.647550284862518311e-01,-4.557223021984100342e-01,-4.643917977809906006e-01,-4.643917977809906006e-01,-4.556219279766082764e-01,-4.556219279766082764e-01,-4.434260129928588867e-01,-4.434260129928588867e-01,-4.303263723850250244e-01,-4.500900506973266602e-01,-4.500900506973266602e-01,-4.392233490943908691e-01,-4.392233490943908691e-01,-4.287632405757904053e-01,-4.287632405757904053e-01,-4.287632405757904053e-01,-4.287632405757904053e-01,-4.208259880542755127e-01,-4.208259880542755127e-01,-4.208259880542755127e-01,-4.120216965675354004e-01,-4.120216965675354004e-01,-3.928478956222534180e-01,-3.928478956222534180e-01,-3.928478956222534180e-01,-3.449048697948455811e-01,-4.034514129161834717e-01,-4.034514129161834717e-01,-4.034514129161834717e-01,-3.624322712421417236e-01,-3.624322712421417236e-01,-3.201308250427246094e-01,-3.201308250427246094e-01,-3.201308250427246094e-01,-3.201308250427246094e-01,-2.777451574802398682e-01,-2.777451574802398682e-01,-4.028187394142150879e-01,-4.028187394142150879e-01,-3.829298317432403564e-01,-3.829298317432403564e-01,-3.829298317432403564e-01,-3.407672941684722900e-01,-3.407672941684722900e-01,-3.407672941684722900e-01,-4.233373105525970459e-01,-4.233373105525970459e-01,-3.931877017021179199e-01,-3.931877017021179199e-01,-3.931877017021179199e-01,-4.180627763271331787e-01,-4.180627763271331787e-01,-4.180627763271331787e-01,-4.089485108852386475e-01,-4.128761291503906250e-01,-4.128761291503906250e-01,-4.128761291503906250e-01,-4.128761291503906250e-01,-4.068901240825653076e-01,-4.068901240825653076e-01,-4.231026172637939453e-01,-4.231026172637939453e-01,-4.109912812709808350e-01,-4.109912812709808350e-01,-4.109912812709808350e-01,-3.943530619144439697e-01,-3.943530619144439697e-01,-3.943530619144439697e-01,-3.790447413921356201e-01,-3.790447413921356201e-01,-3.790447413921356201e-01,-3.790447413921356201e-01,-3.677023649215698242e-01,-3.677023649215698242e-01,-3.677023649215698242e-01,-3.677023649215698242e-01,-3.635171353816986084e-01,-3.635171353816986084e-01,-3.635171353816986084e-01,-3.601699173450469971e-01,-3.601699173450469971e-01,-3.601699173450469971e-01,-3.424839079380035400e-01,-3.424839079380035400e-01,-3.424839079380035400e-01,-3.028985261917114258e-01,-3.028985261917114258e-01,-3.028985261917114258e-01,-3.028985261917114258e-01,-2.483421266078948975e-01,-2.483421266078948975e-01,-2.483421266078948975e-01,-1.681531369686126709e-01,-3.242218196392059326e-01,-3.242218196392059326e-01,-3.242218196392059326e-01,-3.242218196392059326e-01,-2.574344873428344727e-01,-3.541565537452697754e-01,-3.541565537452697754e-01,-2.768471837043762207e-01,-2.768471837043762207e-01,-3.577558994293212891e-01,-3.577558994293212891e-01
-4.634693562984466553e-01,-4.582075774669647217e-01,-4.582075774669647217e-01,-4.582075774669647217e-01,-4.582075774669647217e-01,-4.614906013011932373e-01,-4.614906013011932373e-01,-4.531524777412414551e-01,-4.531524777412414551e-01,-4.589072167873382568e-01,-4.589072167873382568e-01,-4.507459104061126709e-01,-4.573223590850830078e-01,-4.573223590850830078e-01,-4.496471881866455078e-01,-4.496471881866455078e-01,-4.340935647487640381e-01,-4.340935647487640381e-01,-4.154942333698272705e-01,-4.403623938560485840e-01,-4.403623938560485840e-01,-4.281216859817504883e-01,-4.281216859817504883e-01,-4.148485362529754639e-01,-4.148485362529754639e-01,-4.148485362529754639e-01,-4.148485362529754639e-01,-3.904651105403900146e-01,-3.904651105403900146e-01,-3.904651105403900146e-01,-3.538316488265991211e-01,-3.538316488265991211e-01,-3.020843565464019775e-01,-3.020843565464019775e-01,-3.020843565464019775e-01,-2.333287298679351807e-01,-3.578613400459289551e-01,-3.578613400459289551e-01,-3.578613400459289551e-01,-3.045724034309387207e-01,-3.045724034309387207e-01,-2.567427456378936768e-01,-2.567427456378936768e-01,-2.567427456378936768e-01,-2.567427456378936768e-01,-2.205878943204879761e-01,-2.205878943204879761e-01,-3.721826970577239990e-01,-3.721826970577239990e-01,-3.649889230728149414e-01,-3.649889230728149414e-01,-3.649889230728149414e-01,-3.449035882949829102e-01,-3.449035882949829102e-01,-3.449035882949829102e-01,-4.350479245185852051e-01,-4.350479245185852051e-01,-4.174572229385375977e-01,-4.174572229385375977e-01,-4.174572229385375977e-01,-4.342302083969116211e-01,-4.342302083969116211e-01,-4.342302083969116211e-01,-4.201820790767669678e-01,-4.275886416435241699e-01,-4.275886416435241699e-01,-4.275886416435241699e-01,-4.275886416435241699e-01,-4.217834472656250000e-01,-4.217834472656250000e-01,-4.383539259433746338e-01,-4.383539259433746338e-01,-4.262702465057373047e-01,-4.262702465057373047e-01,-4.262702465057373047e-01,-4.106369912624359131e-01,-4.106369912624359131e-01,-4.106369912624359131e-01,-3.971231579780578613e-01,-3.971231579780578613e-01,-3.971231579780578613e-01,-3.971231579780578613e-01,-3.899700045585632324e-01,-3.899700045585632324e-01,-3.899700045585632324e-01,-3.899700045585632324e-01,-3.864792287349700928e-01,-3.864792287349700928e-01,-3.864792287349700928e-01,-3.796844482421875000e-01,-3.796844482421875000e-01,-3.796844482421875000e-01,-3.617156744003295898e-01,-3.617156744003295898e-01,-3.617156744003295898e-01,-3.270720541477203369e-01,-3.270720541477203369e-01,-3.270720541477203369e-01,-3.270720541477203369e-01,-2.803619205951690674e-01,-2.803619205951690674e-01,-2.803619205951690674e-01,-2.092903107404708862e-01,-3.434337973594665527e-01,-3.434337973594665527e-01,-3.434337973594665527e-01,-3.434337973594665527e-01,-2.827692627906799316e-01,-3.720198273658752441e-01,-3.720198273658752441e-01,-2.956419289112091064e-01,-2.956419289112091064e-01,-3.757464587688446045e-01,-3.757464587688446045e-01
