-2.393168359994888306e-01,-2.290533632040023804e-01,-2.290533632040023804e-01,-2.290533632040023804e-01,-2.290533632040023804e-01,-2.290533632040023804e-01,-2.290533632040023804e-01,-2.290533632040023804e-01,-2.290533632040023804e-01,-2.290533632040023804e-01,-2.226384431123733521e-01,-2.226384431123733521e-01,-2.226384431123733521e-01,-2.226384431123733521e-01,-2.226384431123733521e-01,-2.226384431123733521e-01,-2.189263403415679932e-01,-2.189263403415679932e-01,-2.189263403415679932e-01,-2.189263403415679932e-01,-2.109117358922958374e-01,-2.109117358922958374e-01,-2.109117358922958374e-01,-2.109117358922958374e-01,-2.109117358922958374e-01,-2.109117358922958374e-01,-2.109117358922958374e-01,-2.109117358922958374e-01,-2.109117358922958374e-01,-2.109117358922958374e-01,-2.109117358922958374e-01,-2.109117358922958374e-01,-1.969273388385772705e-01,-1.969273388385772705e-01,-1.969273388385772705e-01,-1.969273388385772705e-01,-1.969273388385772705e-01,-1.969273388385772705e-01,-1.969273388385772705e-01,-1.969273388385772705e-01,-1.969273388385772705e-01,-1.969273388385772705e-01,-1.969273388385772705e-01,-1.969273388385772705e-01,-1.969273388385772705e-01,-1.352141052484512329e-01,-1.352141052484512329e-01,-1.352141052484512329e-01,-1.352141052484512329e-01,-1.352141052484512329e-01,-1.352141052484512329e-01,-1.352141052484512329e-01,-1.352141052484512329e-01,-1.352141052484512329e-01,-1.352141052484512329e-01,-1.352141052484512329e-01,-1.352141052484512329e-01,-1.352141052484512329e-01,-1.352141052484512329e-01,-1.631385385990142822e-01,3.596308641135692596e-03,3.596308641135692596e-03,3.596308641135692596e-03,3.596308641135692596e-03,3.596308641135692596e-03,3.596308641135692596e-03,3.596308641135692596e-03,3.596308641135692596e-03,3.596308641135692596e-03,3.596308641135692596e-03,3.596308641135692596e-03,3.596308641135692596e-03,3.596308641135692596e-03,3.596308641135692596e-03,3.596308641135692596e-03,-9.436050459044054151e-05,-9.436050459044054151e-05,-9.436050459044054151e-05,-9.436050459044054151e-05,-9.436050459044054151e-05,-9.436050459044054151e-05,-9.436050459044054151e-05,-9.436050459044054151e-05,-9.436050459044054151e-05,-9.436050459044054151e-05,-9.436050459044054151e-05,-9.436050459044054151e-05,-9.436050459044054151e-05,-9.436050459044054151e-05,-6.353339180350303650e-03,-6.353339180350303650e-03,-6.353339180350303650e-03,-6.353339180350303650e-03,-6.353339180350303650e-03,-6.353339180350303650e-03,-6.353339180350303650e-03,-6.353339180350303650e-03,-6.353339180350303650e-03,-6.353339180350303650e-03,-6.353339180350303650e-03,-6.353339180350303650e-03,-6.353339180350303650e-03,1.648038439452648163e-02,1.648038439452648163e-02,1.648038439452648163e-02,1.648038439452648163e-02,1.648038439452648163e-02,1.648038439452648163e-02,1.648038439452648163e-02,1.648038439452648163e-02,1.648038439452648163e-02,1.648038439452648163e-02,-1.584587693214416504e-01,-1.584587693214416504e-01,-1.584587693214416504e-01,-1.584587693214416504e-01
-2.637351453304290771e-01,-2.553915679454803467e-01,-2.553915679454803467e-01,-2.553915679454803467e-01,-2.553915679454803467e-01,-2.553915679454803467e-01,-2.553915679454803467e-01,-2.553915679454803467e-01,-2.553915679454803467e-01,-2.553915679454803467e-01,-2.504929900169372559e-01,-2.504929900169372559e-01,-2.504929900169372559e-01,-2.504929900169372559e-01,-2.504929900169372559e-01,-2.504929900169372559e-01,-2.478826642036437988e-01,-2.478826642036437988e-01,-2.478826642036437988e-01,-2.478826642036437988e-01,-2.424565702676773071e-01,-2.424565702676773071e-01,-2.424565702676773071e-01,-2.424565702676773071e-01,-2.424565702676773071e-01,-2.424565702676773071e-01,-2.424565702676773071e-01,-2.424565702676773071e-01,-2.424565702676773071e-01,-2.424565702676773071e-01,-2.424565702676773071e-01,-2.424565702676773071e-01,-2.317813336849212646e-01,-2.317813336849212646e-01,-2.317813336849212646e-01,-2.317813336849212646e-01,-2.317813336849212646e-01,-2.317813336849212646e-01,-2.317813336849212646e-01,-2.317813336849212646e-01,-2.317813336849212646e-01,-2.317813336849212646e-01,-2.317813336849212646e-01,-2.317813336849212646e-01,-2.317813336849212646e-01,-1.530214399099349976e-01,-1.530214399099349976e-01,-1.530214399099349976e-01,-1.530214399099349976e-01,-1.530214399099349976e-01,-1.530214399099349976e-01,-1.530214399099349976e-01,-1.530214399099349976e-01,-1.530214399099349976e-01,-1.530214399099349976e-01,-1.530214399099349976e-01,-1.530214399099349976e-01,-1.530214399099349976e-01,-1.530214399099349976e-01,-1.772734969854354858e-01,-3.091430524364113808e-03,-3.091430524364113808e-03,-3.091430524364113808e-03,-3.091430524364113808e-03,-3.091430524364113808e-03,-3.091430524364113808e-03,-3.091430524364113808e-03,-3.091430524364113808e-03,-3.091430524364113808e-03,-3.091430524364113808e-03,-3.091430524364113808e-03,-3.091430524364113808e-03,-3.091430524364113808e-03,-3.091430524364113808e-03,-3.091430524364113808e-03,-7.672404870390892029e-03,-7.672404870390892029e-03,-7.672404870390892029e-03,-7.672404870390892029e-03,-7.672404870390892029e-03,-7.672404870390892029e-03,-7.672404870390892029e-03,-7.672404870390892029e-03,-7.672404870390892029e-03,-7.672404870390892029e-03,-7.672404870390892029e-03,-7.672404870390892029e-03,-7.672404870390892029e-03,-7.672404870390892029e-03,-1.792943477630615234e-02,-1.792943477630615234e-02,-1.792943477630615234e-02,-1.792943477630615234e-02,-1.792943477630615234e-02,-1.792943477630615234e-02,-1.792943477630615234e-02,-1.792943477630615234e-02,-1.792943477630615234e-02,-1.792943477630615234e-02,-1.792943477630615234e-02,-1.792943477630615234e-02,-1.792943477630615234e-02,8.075944148004055023e-03,8.075944148004055023e-03,8.075944148004055023e-03,8.075944148004055023e-03,8.075944148004055023e-03,8.075944148004055023e-03,8.075944148004055023e-03,8.075944148004055023e-03,8.075944148004055023e-03,8.075944148004055023e-03,-1.600070148706436157e-01,-1.600070148706436157e-01,-1.600070148706436157e-01,-1.600070148706436157e-01
-2.657700181007385254e-01,-2.518599629402160645e-01,-2.518599629402160645e-01,-2.518599629402160645e-01,-2.518599629402160645e-01,-2.518599629402160645e-01,-2.518599629402160645e-01,-2.518599629402160645e-01,-2.518599629402160645e-01,-2.518599629402160645e-01,-2.492385804653167725e-01,-2.492385804653167725e-01,-2.492385804653167725e-01,-2.492385804653167725e-01,-2.492385804653167725e-01,-2.492385804653167725e-01,-2.324117422103881836e-01,-2.324117422103881836e-01,-2.324117422103881836e-01,-2.324117422103881836e-01,-2.351710051298141479e-01,-2.351710051298141479e-01,-2.351710051298141479e-01,-2.351710051298141479e-01,-2.351710051298141479e-01,-2.351710051298141479e-01,-2.351710051298141479e-01,-2.351710051298141479e-01,-2.351710051298141479e-01,-2.351710051298141479e-01,-2.351710051298141479e-01,-2.351710051298141479e-01,-2.240794301033020020e-01,-2.240794301033020020e-01,-2.240794301033020020e-01,-2.240794301033020020e-01,-2.240794301033020020e-01,-2.240794301033020020e-01,-2.240794301033020020e-01,-2.240794301033020020e-01,-2.240794301033020020e-01,-2.240794301033020020e-01,-2.240794301033020020e-01,-2.240794301033020020e-01,-2.240794301033020020e-01,-1.369675993919372559e-01,-1.369675993919372559e-01,-1.369675993919372559e-01,-1.369675993919372559e-01,-1.369675993919372559e-01,-1.369675993919372559e-01,-1.369675993919372559e-01,-1.369675993919372559e-01,-1.369675993919372559e-01,-1.369675993919372559e-01,-1.369675993919372559e-01,-1.369675993919372559e-01,-1.369675993919372559e-01,-1.369675993919372559e-01,-1.491094827651977539e-01,1.581919938325881958e-02,1.581919938325881958e-02,1.581919938325881958e-02,1.581919938325881958e-02,1.581919938325881958e-02,1.581919938325881958e-02,1.581919938325881958e-02,1.581919938325881958e-02,1.581919938325881958e-02,1.581919938325881958e-02,1.581919938325881958e-02,1.581919938325881958e-02,1.581919938325881958e-02,1.581919938325881958e-02,1.581919938325881958e-02,1.040304731577634811e-02,1.040304731577634811e-02,1.040304731577634811e-02,1.040304731577634811e-02,1.040304731577634811e-02,1.040304731577634811e-02,1.040304731577634811e-02,1.040304731577634811e-02,1.040304731577634811e-02,1.040304731577634811e-02,1.040304731577634811e-02,1.040304731577634811e-02,1.040304731577634811e-02,1.040304731577634811e-02,7.416865555569529533e-04,7.416865555569529533e-04,7.416865555569529533e-04,7.416865555569529533e-04,7.416865555569529533e-04,7.416865555569529533e-04,7.416865555569529533e-04,7.416865555569529533e-04,7.416865555569529533e-04,7.416865555569529533e-04,7.416865555569529533e-04,7.416865555569529533e-04,7.416865555569529533e-04,2.913652360439300537e-02,2.913652360439300537e-02,2.913652360439300537e-02,2.913652360439300537e-02,2.913652360439300537e-02,2.913652360439300537e-02,2.913652360439300537e-02,2.913652360439300537e-02,2.913652360439300537e-02,2.913652360439300537e-02,-1.345696002244949341e-01,-1.345696002244949341e-01,-1.345696002244949341e-01,-1.345696002244949341e-01
-2.256347537040710449e-01,-2.118471711874008179e-01,-2.118471711874008179e-01,-2.118471711874008179e-01,-2.118471711874008179e-01,-2.118471711874008179e-01,-2.118471711874008179e-01,-2.118471711874008179e-01,-2.118471711874008179e-01,-2.118471711874008179e-01,-2.153303027153015137e-01,-2.153303027153015137e-01,-2.153303027153015137e-01,-2.153303027153015137e-01,-2.153303027153015137e-01,-2.153303027153015137e-01,-1.843605786561965942e-01,-1.843605786561965942e-01,-1.843605786561965942e-01,-1.843605786561965942e-01,-1.832779496908187866e-01,-1.832779496908187866e-01,-1.832779496908187866e-01,-1.832779496908187866e-01,-1.832779496908187866e-01,-1.832779496908187866e-01,-1.832779496908187866e-01,-1.832779496908187866e-01,-1.832779496908187866e-01,-1.832779496908187866e-01,-1.832779496908187866e-01,-1.832779496908187866e-01,-1.647561490535736084e-01,-1.647561490535736084e-01,-1.647561490535736084e-01,-1.647561490535736084e-01,-1.647561490535736084e-01,-1.647561490535736084e-01,-1.647561490535736084e-01,-1.647561490535736084e-01,-1.647561490535736084e-01,-1.647561490535736084e-01,-1.647561490535736084e-01,-1.647561490535736084e-01,-1.647561490535736084e-01,-8.810433000326156616e-02,-8.810433000326156616e-02,-8.810433000326156616e-02,-8.810433000326156616e-02,-8.810433000326156616e-02,-8.810433000326156616e-02,-8.810433000326156616e-02,-8.810433000326156616e-02,-8.810433000326156616e-02,-8.810433000326156616e-02,-8.810433000326156616e-02,-8.810433000326156616e-02,-8.810433000326156616e-02,-8.810433000326156616e-02,-1.009839177131652832e-01,4.650279879570007324e-02,4.650279879570007324e-02,4.650279879570007324e-02,4.650279879570007324e-02,4.650279879570007324e-02,4.650279879570007324e-02,4.650279879570007324e-02,4.650279879570007324e-02,4.650279879570007324e-02,4.650279879570007324e-02,4.650279879570007324e-02,4.650279879570007324e-02,4.650279879570007324e-02,4.650279879570007324e-02,4.650279879570007324e-02,4.000153392553329468e-02,4.000153392553329468e-02,4.000153392553329468e-02,4.000153392553329468e-02,4.000153392553329468e-02,4.000153392553329468e-02,4.000153392553329468e-02,4.000153392553329468e-02,4.000153392553329468e-02,4.000153392553329468e-02,4.000153392553329468e-02,4.000153392553329468e-02,4.000153392553329468e-02,4.000153392553329468e-02,2.888080105185508728e-02,2.888080105185508728e-02,2.888080105185508728e-02,2.888080105185508728e-02,2.888080105185508728e-02,2.888080105185508728e-02,2.888080105185508728e-02,2.888080105185508728e-02,2.888080105185508728e-02,2.888080105185508728e-02,2.888080105185508728e-02,2.888080105185508728e-02,2.888080105185508728e-02,5.711872503161430359e-02,5.711872503161430359e-02,5.711872503161430359e-02,5.711872503161430359e-02,5.711872503161430359e-02,5.711872503161430359e-02,5.711872503161430359e-02,5.711872503161430359e-02,5.711872503161430359e-02,5.711872503161430359e-02,-1.037047281861305237e-01,-1.037047281861305237e-01,-1.037047281861305237e-01,-1.037047281861305237e-01
-1.806106716394424438e-01,-1.642965674400329590e-01,-1.642965674400329590e-01,-1.642965674400329590e-01,-1.642965674400329590e-01,-1.642965674400329590e-01,-1.642965674400329590e-01,-1.642965674400329590e-01,-1.642965674400329590e-01,-1.642965674400329590e-01,-1.759699881076812744e-01,-1.759699881076812744e-01,-1.759699881076812744e-01,-1.759699881076812744e-01,-1.759699881076812744e-01,-1.759699881076812744e-01,-1.393030136823654175e-01,-1.393030136823654175e-01,-1.393030136823654175e-01,-1.393030136823654175e-01,-1.436962336301803589e-01,-1.436962336301803589e-01,-1.436962336301803589e-01,-1.436962336301803589e-01,-1.436962336301803589e-01,-1.436962336301803589e-01,-1.436962336301803589e-01,-1.436962336301803589e-01,-1.436962336301803589e-01,-1.436962336301803589e-01,-1.436962336301803589e-01,-1.436962336301803589e-01,-1.227979138493537903e-01,-1.227979138493537903e-01,-1.227979138493537903e-01,-1.227979138493537903e-01,-1.227979138493537903e-01,-1.227979138493537903e-01,-1.227979138493537903e-01,-1.227979138493537903e-01,-1.227979138493537903e-01,-1.227979138493537903e-01,-1.227979138493537903e-01,-1.227979138493537903e-01,-1.227979138493537903e-01,-5.104078352451324463e-02,-5.104078352451324463e-02,-5.104078352451324463e-02,-5.104078352451324463e-02,-5.104078352451324463e-02,-5.104078352451324463e-02,-5.104078352451324463e-02,-5.104078352451324463e-02,-5.104078352451324463e-02,-5.104078352451324463e-02,-5.104078352451324463e-02,-5.104078352451324463e-02,-5.104078352451324463e-02,-5.104078352451324463e-02,-7.193760573863983154e-02,7.104505598545074463e-02,7.104505598545074463e-02,7.104505598545074463e-02,7.104505598545074463e-02,7.104505598545074463e-02,7.104505598545074463e-02,7.104505598545074463e-02,7.104505598545074463e-02,7.104505598545074463e-02,7.104505598545074463e-02,7.104505598545074463e-02,7.104505598545074463e-02,7.104505598545074463e-02,7.104505598545074463e-02,7.104505598545074463e-02,6.342465430498123169e-02,6.342465430498123169e-02,6.342465430498123169e-02,6.342465430498123169e-02,6.342465430498123169e-02,6.342465430498123169e-02,6.342465430498123169e-02,6.342465430498123169e-02,6.342465430498123169e-02,6.342465430498123169e-02,6.342465430498123169e-02,6.342465430498123169e-02,6.342465430498123169e-02,6.342465430498123169e-02,5.412150546908378601e-02,5.412150546908378601e-02,5.412150546908378601e-02,5.412150546908378601e-02,5.412150546908378601e-02,5.412150546908378601e-02,5.412150546908378601e-02,5.412150546908378601e-02,5.412150546908378601e-02,5.412150546908378601e-02,5.412150546908378601e-02,5.412150546908378601e-02,5.412150546908378601e-02,8.090882003307342529e-02,8.090882003307342529e-02,8.090882003307342529e-02,8.090882003307342529e-02,8.090882003307342529e-02,8.090882003307342529e-02,8.090882003307342529e-02,8.090882003307342529e-02,8.090882003307342529e-02,8.090882003307342529e-02,-7.429702579975128174e-02,-7.429702579975128174e-02,-7.429702579975128174e-02,-7.429702579975128174e-02
-1.101479157805442810e-01,-9.981452673673629761e-02,-9.981452673673629761e-02,-9.981452673673629761e-02,-9.981452673673629761e-02,-9.981452673673629761e-02,-9.981452673673629761e-02,-9.981452673673629761e-02,-9.981452673673629761e-02,-9.981452673673629761e-02,-1.147731468081474304e-01,-1.147731468081474304e-01,-1.147731468081474304e-01,-1.147731468081474304e-01,-1.147731468081474304e-01,-1.147731468081474304e-01,-8.746074140071868896e-02,-8.746074140071868896e-02,-8.746074140071868896e-02,-8.746074140071868896e-02,-9.388753771781921387e-02,-9.388753771781921387e-02,-9.388753771781921387e-02,-9.388753771781921387e-02,-9.388753771781921387e-02,-9.388753771781921387e-02,-9.388753771781921387e-02,-9.388753771781921387e-02,-9.388753771781921387e-02,-9.388753771781921387e-02,-9.388753771781921387e-02,-9.388753771781921387e-02,-7.475231587886810303e-02,-7.475231587886810303e-02,-7.475231587886810303e-02,-7.475231587886810303e-02,-7.475231587886810303e-02,-7.475231587886810303e-02,-7.475231587886810303e-02,-7.475231587886810303e-02,-7.475231587886810303e-02,-7.475231587886810303e-02,-7.475231587886810303e-02,-7.475231587886810303e-02,-7.475231587886810303e-02,-1.731358096003532410e-02,-1.731358096003532410e-02,-1.731358096003532410e-02,-1.731358096003532410e-02,-1.731358096003532410e-02,-1.731358096003532410e-02,-1.731358096003532410e-02,-1.731358096003532410e-02,-1.731358096003532410e-02,-1.731358096003532410e-02,-1.731358096003532410e-02,-1.731358096003532410e-02,-1.731358096003532410e-02,-1.731358096003532410e-02,-4.210257530212402344e-02,9.266328066587448120e-02,9.266328066587448120e-02,9.266328066587448120e-02,9.266328066587448120e-02,9.266328066587448120e-02,9.266328066587448120e-02,9.266328066587448120e-02,9.266328066587448120e-02,9.266328066587448120e-02,9.266328066587448120e-02,9.266328066587448120e-02,9.266328066587448120e-02,9.266328066587448120e-02,9.266328066587448120e-02,9.266328066587448120e-02,8.547112345695495605e-02,8.547112345695495605e-02,8.547112345695495605e-02,8.547112345695495605e-02,8.547112345695495605e-02,8.547112345695495605e-02,8.547112345695495605e-02,8.547112345695495605e-02,8.547112345695495605e-02,8.547112345695495605e-02,8.547112345695495605e-02,8.547112345695495605e-02,8.547112345695495605e-02,8.547112345695495605e-02,7.588628679513931274e-02,7.588628679513931274e-02,7.588628679513931274e-02,7.588628679513931274e-02,7.588628679513931274e-02,7.588628679513931274e-02,7.588628679513931274e-02,7.588628679513931274e-02,7.588628679513931274e-02,7.588628679513931274e-02,7.588628679513931274e-02,7.588628679513931274e-02,7.588628679513931274e-02,9.948708862066268921e-02,9.948708862066268921e-02,9.948708862066268921e-02,9.948708862066268921e-02,9.948708862066268921e-02,9.948708862066268921e-02,9.948708862066268921e-02,9.948708862066268921e-02,9.948708862066268921e-02,9.948708862066268921e-02,-6.245509535074234009e-02,-6.245509535074234009e-02,-6.245509535074234009e-02,-6.245509535074234009e-02
-6.480628997087478638e-02,-6.308425962924957275e-02,-6.308425962924957275e-02,-6.308425962924957275e-02,-6.308425962924957275e-02,-6.308425962924957275e-02,-6.308425962924957275e-02,-6.308425962924957275e-02,-6.308425962924957275e-02,-6.308425962924957275e-02,-7.210977375507354736e-02,-7.210977375507354736e-02,-7.210977375507354736e-02,-7.210977375507354736e-02,-7.210977375507354736e-02,-7.210977375507354736e-02,-6.353496015071868896e-02,-6.353496015071868896e-02,-6.353496015071868896e-02,-6.353496015071868896e-02,-6.808412820100784302e-02,-6.808412820100784302e-02,-6.808412820100784302e-02,-6.808412820100784302e-02,-6.808412820100784302e-02,-6.808412820100784302e-02,-6.808412820100784302e-02,-6.808412820100784302e-02,-6.808412820100784302e-02,-6.808412820100784302e-02,-6.808412820100784302e-02,-6.808412820100784302e-02,-5.773929506540298462e-02,-5.773929506540298462e-02,-5.773929506540298462e-02,-5.773929506540298462e-02,-5.773929506540298462e-02,-5.773929506540298462e-02,-5.773929506540298462e-02,-5.773929506540298462e-02,-5.773929506540298462e-02,-5.773929506540298462e-02,-5.773929506540298462e-02,-5.773929506540298462e-02,-5.773929506540298462e-02,-1.196773163974285126e-02,-1.196773163974285126e-02,-1.196773163974285126e-02,-1.196773163974285126e-02,-1.196773163974285126e-02,-1.196773163974285126e-02,-1.196773163974285126e-02,-1.196773163974285126e-02,-1.196773163974285126e-02,-1.196773163974285126e-02,-1.196773163974285126e-02,-1.196773163974285126e-02,-1.196773163974285126e-02,-1.196773163974285126e-02,-4.119986295700073242e-02,9.596846252679824829e-02,9.596846252679824829e-02,9.596846252679824829e-02,9.596846252679824829e-02,9.596846252679824829e-02,9.596846252679824829e-02,9.596846252679824829e-02,9.596846252679824829e-02,9.596846252679824829e-02,9.596846252679824829e-02,9.596846252679824829e-02,9.596846252679824829e-02,9.596846252679824829e-02,9.596846252679824829e-02,9.596846252679824829e-02,8.584003150463104248e-02,8.584003150463104248e-02,8.584003150463104248e-02,8.584003150463104248e-02,8.584003150463104248e-02,8.584003150463104248e-02,8.584003150463104248e-02,8.584003150463104248e-02,8.584003150463104248e-02,8.584003150463104248e-02,8.584003150463104248e-02,8.584003150463104248e-02,8.584003150463104248e-02,8.584003150463104248e-02,7.557396590709686279e-02,7.557396590709686279e-02,7.557396590709686279e-02,7.557396590709686279e-02,7.557396590709686279e-02,7.557396590709686279e-02,7.557396590709686279e-02,7.557396590709686279e-02,7.557396590709686279e-02,7.557396590709686279e-02,7.557396590709686279e-02,7.557396590709686279e-02,7.557396590709686279e-02,9.659361094236373901e-02,9.659361094236373901e-02,9.659361094236373901e-02,9.659361094236373901e-02,9.659361094236373901e-02,9.659361094236373901e-02,9.659361094236373901e-02,9.659361094236373901e-02,9.659361094236373901e-02,9.659361094236373901e-02,-6.956993043422698975e-02,-6.956993043422698975e-02,-6.956993043422698975e-02,-6.956993043422698975e-02
-4.362200945615768433e-02,-4.591627046465873718e-02,-4.591627046465873718e-02,-4.591627046465873718e-02,-4.591627046465873718e-02,-4.591627046465873718e-02,-4.591627046465873718e-02,-4.591627046465873718e-02,-4.591627046465873718e-02,-4.591627046465873718e-02,-5.072069168090820312e-02,-5.072069168090820312e-02,-5.072069168090820312e-02,-5.072069168090820312e-02,-5.072069168090820312e-02,-5.072069168090820312e-02,-4.983239993453025818e-02,-4.983239993453025818e-02,-4.983239993453025818e-02,-4.983239993453025818e-02,-5.302894860506057739e-02,-5.302894860506057739e-02,-5.302894860506057739e-02,-5.302894860506057739e-02,-5.302894860506057739e-02,-5.302894860506057739e-02,-5.302894860506057739e-02,-5.302894860506057739e-02,-5.302894860506057739e-02,-5.302894860506057739e-02,-5.302894860506057739e-02,-5.302894860506057739e-02,-4.301001876592636108e-02,-4.301001876592636108e-02,-4.301001876592636108e-02,-4.301001876592636108e-02,-4.301001876592636108e-02,-4.301001876592636108e-02,-4.301001876592636108e-02,-4.301001876592636108e-02,-4.301001876592636108e-02,-4.301001876592636108e-02,-4.301001876592636108e-02,-4.301001876592636108e-02,-4.301001876592636108e-02,4.696552641689777374e-03,4.696552641689777374e-03,4.696552641689777374e-03,4.696552641689777374e-03,4.696552641689777374e-03,4.696552641689777374e-03,4.696552641689777374e-03,4.696552641689777374e-03,4.696552641689777374e-03,4.696552641689777374e-03,4.696552641689777374e-03,4.696552641689777374e-03,4.696552641689777374e-03,4.696552641689777374e-03,-2.900574170053005219e-02,1.131286248564720154e-01,1.131286248564720154e-01,1.131286248564720154e-01,1.131286248564720154e-01,1.131286248564720154e-01,1.131286248564720154e-01,1.131286248564720154e-01,1.131286248564720154e-01,1.131286248564720154e-01,1.131286248564720154e-01,1.131286248564720154e-01,1.131286248564720154e-01,1.131286248564720154e-01,1.131286248564720154e-01,1.131286248564720154e-01,1.010508090257644653e-01,1.010508090257644653e-01,1.010508090257644653e-01,1.010508090257644653e-01,1.010508090257644653e-01,1.010508090257644653e-01,1.010508090257644653e-01,1.010508090257644653e-01,1.010508090257644653e-01,1.010508090257644653e-01,1.010508090257644653e-01,1.010508090257644653e-01,1.010508090257644653e-01,1.010508090257644653e-01,9.078361093997955322e-02,9.078361093997955322e-02,9.078361093997955322e-02,9.078361093997955322e-02,9.078361093997955322e-02,9.078361093997955322e-02,9.078361093997955322e-02,9.078361093997955322e-02,9.078361093997955322e-02,9.078361093997955322e-02,9.078361093997955322e-02,9.078361093997955322e-02,9.078361093997955322e-02,1.126034557819366455e-01,1.126034557819366455e-01,1.126034557819366455e-01,1.126034557819366455e-01,1.126034557819366455e-01,1.126034557819366455e-01,1.126034557819366455e-01,1.126034557819366455e-01,1.126034557819366455e-01,1.126034557819366455e-01,-4.998316615819931030e-02,-4.998316615819931030e-02,-4.998316615819931030e-02,-4.998316615819931030e-02
-5.196632817387580872e-02,-4.591222852468490601e-02,-4.591222852468490601e-02,-4.591222852468490601e-02,-4.591222852468490601e-02,-4.591222852468490601e-02,-4.591222852468490601e-02,-4.591222852468490601e-02,-4.591222852468490601e-02,-4.591222852468490601e-02,-5.600645765662193298e-02,-5.600645765662193298e-02,-5.600645765662193298e-02,-5.600645765662193298e-02,-5.600645765662193298e-02,-5.600645765662193298e-02,-4.744672775268554688e-02,-4.744672775268554688e-02,-4.744672775268554688e-02,-4.744672775268554688e-02,-5.087355151772499084e-02,-5.087355151772499084e-02,-5.087355151772499084e-02,-5.087355151772499084e-02,-5.087355151772499084e-02,-5.087355151772499084e-02,-5.087355151772499084e-02,-5.087355151772499084e-02,-5.087355151772499084e-02,-5.087355151772499084e-02,-5.087355151772499084e-02,-5.087355151772499084e-02,-3.575691208243370056e-02,-3.575691208243370056e-02,-3.575691208243370056e-02,-3.575691208243370056e-02,-3.575691208243370056e-02,-3.575691208243370056e-02,-3.575691208243370056e-02,-3.575691208243370056e-02,-3.575691208243370056e-02,-3.575691208243370056e-02,-3.575691208243370056e-02,-3.575691208243370056e-02,-3.575691208243370056e-02,1.780837774276733398e-02,1.780837774276733398e-02,1.780837774276733398e-02,1.780837774276733398e-02,1.780837774276733398e-02,1.780837774276733398e-02,1.780837774276733398e-02,1.780837774276733398e-02,1.780837774276733398e-02,1.780837774276733398e-02,1.780837774276733398e-02,1.780837774276733398e-02,1.780837774276733398e-02,1.780837774276733398e-02,-4.668748471885919571e-03,1.328523159027099609e-01,1.328523159027099609e-01,1.328523159027099609e-01,1.328523159027099609e-01,1.328523159027099609e-01,1.328523159027099609e-01,1.328523159027099609e-01,1.328523159027099609e-01,1.328523159027099609e-01,1.328523159027099609e-01,1.328523159027099609e-01,1.328523159027099609e-01,1.328523159027099609e-01,1.328523159027099609e-01,1.328523159027099609e-01,1.223345026373863220e-01,1.223345026373863220e-01,1.223345026373863220e-01,1.223345026373863220e-01,1.223345026373863220e-01,1.223345026373863220e-01,1.223345026373863220e-01,1.223345026373863220e-01,1.223345026373863220e-01,1.223345026373863220e-01,1.223345026373863220e-01,1.223345026373863220e-01,1.223345026373863220e-01,1.223345026373863220e-01,1.146183460950851440e-01,1.146183460950851440e-01,1.146183460950851440e-01,1.146183460950851440e-01,1.146183460950851440e-01,1.146183460950851440e-01,1.146183460950851440e-01,1.146183460950851440e-01,1.146183460950851440e-01,1.146183460950851440e-01,1.146183460950851440e-01,1.146183460950851440e-01,1.146183460950851440e-01,1.371575593948364258e-01,1.371575593948364258e-01,1.371575593948364258e-01,1.371575593948364258e-01,1.371575593948364258e-01,1.371575593948364258e-01,1.371575593948364258e-01,1.371575593948364258e-01,1.371575593948364258e-01,1.371575593948364258e-01,-1.264944579452276230e-02,-1.264944579452276230e-02,-1.264944579452276230e-02,-1.264944579452276230e-02
-6.669180840253829956e-02,-6.073910742998123169e-02,-6.073910742998123169e-02,-6.073910742998123169e-02,-6.073910742998123169e-02,-6.073910742998123169e-02,-6.073910742998123169e-02,-6.073910742998123169e-02,-6.073910742998123169e-02,-6.073910742998123169e-02,-7.058931142091751099e-02,-7.058931142091751099e-02,-7.058931142091751099e-02,-7.058931142091751099e-02,-7.058931142091751099e-02,-7.058931142091751099e-02,-5.412098392844200134e-02,-5.412098392844200134e-02,-5.412098392844200134e-02,-5.412098392844200134e-02,-5.476243793964385986e-02,-5.476243793964385986e-02,-5.476243793964385986e-02,-5.476243793964385986e-02,-5.476243793964385986e-02,-5.476243793964385986e-02,-5.476243793964385986e-02,-5.476243793964385986e-02,-5.476243793964385986e-02,-5.476243793964385986e-02,-5.476243793964385986e-02,-5.476243793964385986e-02,-3.830632194876670837e-02,-3.830632194876670837e-02,-3.830632194876670837e-02,-3.830632194876670837e-02,-3.830632194876670837e-02,-3.830632194876670837e-02,-3.830632194876670837e-02,-3.830632194876670837e-02,-3.830632194876670837e-02,-3.830632194876670837e-02,-3.830632194876670837e-02,-3.830632194876670837e-02,-3.830632194876670837e-02,1.843976043164730072e-02,1.843976043164730072e-02,1.843976043164730072e-02,1.843976043164730072e-02,1.843976043164730072e-02,1.843976043164730072e-02,1.843976043164730072e-02,1.843976043164730072e-02,1.843976043164730072e-02,1.843976043164730072e-02,1.843976043164730072e-02,1.843976043164730072e-02,1.843976043164730072e-02,1.843976043164730072e-02,-1.162318047136068344e-02,1.308034360408782959e-01,1.308034360408782959e-01,1.308034360408782959e-01,1.308034360408782959e-01,1.308034360408782959e-01,1.308034360408782959e-01,1.308034360408782959e-01,1.308034360408782959e-01,1.308034360408782959e-01,1.308034360408782959e-01,1.308034360408782959e-01,1.308034360408782959e-01,1.308034360408782959e-01,1.308034360408782959e-01,1.308034360408782959e-01,1.195942461490631104e-01,1.195942461490631104e-01,1.195942461490631104e-01,1.195942461490631104e-01,1.195942461490631104e-01,1.195942461490631104e-01,1.195942461490631104e-01,1.195942461490631104e-01,1.195942461490631104e-01,1.195942461490631104e-01,1.195942461490631104e-01,1.195942461490631104e-01,1.195942461490631104e-01,1.195942461490631104e-01,1.088027283549308777e-01,1.088027283549308777e-01,1.088027283549308777e-01,1.088027283549308777e-01,1.088027283549308777e-01,1.088027283549308777e-01,1.088027283549308777e-01,1.088027283549308777e-01,1.088027283549308777e-01,1.088027283549308777e-01,1.088027283549308777e-01,1.088027283549308777e-01,1.088027283549308777e-01,1.226651519536972046e-01,1.226651519536972046e-01,1.226651519536972046e-01,1.226651519536972046e-01,1.226651519536972046e-01,1.226651519536972046e-01,1.226651519536972046e-01,1.226651519536972046e-01,1.226651519536972046e-01,1.226651519536972046e-01,-4.730950668454170227e-02,-4.730950668454170227e-02,-4.730950668454170227e-02,-4.730950668454170227e-02
-1.373867690563201904e-01,-1.389248669147491455e-01,-1.389248669147491455e-01,-1.389248669147491455e-01,-1.389248669147491455e-01,-1.389248669147491455e-01,-1.389248669147491455e-01,-1.389248669147491455e-01,-1.389248669147491455e-01,-1.389248669147491455e-01,-1.290511935949325562e-01,-1.290511935949325562e-01,-1.290511935949325562e-01,-1.290511935949325562e-01,-1.290511935949325562e-01,-1.290511935949325562e-01,-1.252360343933105469e-01,-1.252360343933105469e-01,-1.252360343933105469e-01,-1.252360343933105469e-01,-1.148542687296867371e-01,-1.148542687296867371e-01,-1.148542687296867371e-01,-1.148542687296867371e-01,-1.148542687296867371e-01,-1.148542687296867371e-01,-1.148542687296867371e-01,-1.148542687296867371e-01,-1.148542687296867371e-01,-1.148542687296867371e-01,-1.148542687296867371e-01,-1.148542687296867371e-01,-9.360498934984207153e-02,-9.360498934984207153e-02,-9.360498934984207153e-02,-9.360498934984207153e-02,-9.360498934984207153e-02,-9.360498934984207153e-02,-9.360498934984207153e-02,-9.360498934984207153e-02,-9.360498934984207153e-02,-9.360498934984207153e-02,-9.360498934984207153e-02,-9.360498934984207153e-02,-9.360498934984207153e-02,-3.827185928821563721e-02,-3.827185928821563721e-02,-3.827185928821563721e-02,-3.827185928821563721e-02,-3.827185928821563721e-02,-3.827185928821563721e-02,-3.827185928821563721e-02,-3.827185928821563721e-02,-3.827185928821563721e-02,-3.827185928821563721e-02,-3.827185928821563721e-02,-3.827185928821563721e-02,-3.827185928821563721e-02,-3.827185928821563721e-02,-8.304347842931747437e-02,7.344245910644531250e-02,7.344245910644531250e-02,7.344245910644531250e-02,7.344245910644531250e-02,7.344245910644531250e-02,7.344245910644531250e-02,7.344245910644531250e-02,7.344245910644531250e-02,7.344245910644531250e-02,7.344245910644531250e-02,7.344245910644531250e-02,7.344245910644531250e-02,7.344245910644531250e-02,7.344245910644531250e-02,7.344245910644531250e-02,6.203786283731460571e-02,6.203786283731460571e-02,6.203786283731460571e-02,6.203786283731460571e-02,6.203786283731460571e-02,6.203786283731460571e-02,6.203786283731460571e-02,6.203786283731460571e-02,6.203786283731460571e-02,6.203786283731460571e-02,6.203786283731460571e-02,6.203786283731460571e-02,6.203786283731460571e-02,6.203786283731460571e-02,5.430541932582855225e-02,5.430541932582855225e-02,5.430541932582855225e-02,5.430541932582855225e-02,5.430541932582855225e-02,5.430541932582855225e-02,5.430541932582855225e-02,5.430541932582855225e-02,5.430541932582855225e-02,5.430541932582855225e-02,5.430541932582855225e-02,5.430541932582855225e-02,5.430541932582855225e-02,7.079751044511795044e-02,7.079751044511795044e-02,7.079751044511795044e-02,7.079751044511795044e-02,7.079751044511795044e-02,7.079751044511795044e-02,7.079751044511795044e-02,7.079751044511795044e-02,7.079751044511795044e-02,7.079751044511795044e-02,-1.236722841858863831e-01,-1.236722841858863831e-01,-1.236722841858863831e-01,-1.236722841858863831e-01
-1.713859140872955322e-01,-1.685655862092971802e-01,-1.685655862092971802e-01,-1.685655862092971802e-01,-1.685655862092971802e-01,-1.685655862092971802e-01,-1.685655862092971802e-01,-1.685655862092971802e-01,-1.685655862092971802e-01,-1.685655862092971802e-01,-1.610383093357086182e-01,-1.610383093357086182e-01,-1.610383093357086182e-01,-1.610383093357086182e-01,-1.610383093357086182e-01,-1.610383093357086182e-01,-1.579958945512771606e-01,-1.579958945512771606e-01,-1.579958945512771606e-01,-1.579958945512771606e-01,-1.499764323234558105e-01,-1.499764323234558105e-01,-1.499764323234558105e-01,-1.499764323234558105e-01,-1.499764323234558105e-01,-1.499764323234558105e-01,-1.499764323234558105e-01,-1.499764323234558105e-01,-1.499764323234558105e-01,-1.499764323234558105e-01,-1.499764323234558105e-01,-1.499764323234558105e-01,-1.336565613746643066e-01,-1.336565613746643066e-01,-1.336565613746643066e-01,-1.336565613746643066e-01,-1.336565613746643066e-01,-1.336565613746643066e-01,-1.336565613746643066e-01,-1.336565613746643066e-01,-1.336565613746643066e-01,-1.336565613746643066e-01,-1.336565613746643066e-01,-1.336565613746643066e-01,-1.336565613746643066e-01,-7.333537191152572632e-02,-7.333537191152572632e-02,-7.333537191152572632e-02,-7.333537191152572632e-02,-7.333537191152572632e-02,-7.333537191152572632e-02,-7.333537191152572632e-02,-7.333537191152572632e-02,-7.333537191152572632e-02,-7.333537191152572632e-02,-7.333537191152572632e-02,-7.333537191152572632e-02,-7.333537191152572632e-02,-7.333537191152572632e-02,-1.157332286238670349e-01,4.471170529723167419e-02,4.471170529723167419e-02,4.471170529723167419e-02,4.471170529723167419e-02,4.471170529723167419e-02,4.471170529723167419e-02,4.471170529723167419e-02,4.471170529723167419e-02,4.471170529723167419e-02,4.471170529723167419e-02,4.471170529723167419e-02,4.471170529723167419e-02,4.471170529723167419e-02,4.471170529723167419e-02,4.471170529723167419e-02,3.961285203695297241e-02,3.961285203695297241e-02,3.961285203695297241e-02,3.961285203695297241e-02,3.961285203695297241e-02,3.961285203695297241e-02,3.961285203695297241e-02,3.961285203695297241e-02,3.961285203695297241e-02,3.961285203695297241e-02,3.961285203695297241e-02,3.961285203695297241e-02,3.961285203695297241e-02,3.961285203695297241e-02,3.537951037287712097e-02,3.537951037287712097e-02,3.537951037287712097e-02,3.537951037287712097e-02,3.537951037287712097e-02,3.537951037287712097e-02,3.537951037287712097e-02,3.537951037287712097e-02,3.537951037287712097e-02,3.537951037287712097e-02,3.537951037287712097e-02,3.537951037287712097e-02,3.537951037287712097e-02,5.120591074228286743e-02,5.120591074228286743e-02,5.120591074228286743e-02,5.120591074228286743e-02,5.120591074228286743e-02,5.120591074228286743e-02,5.120591074228286743e-02,5.120591074228286743e-02,5.120591074228286743e-02,5.120591074228286743e-02,-1.244796738028526306e-01,-1.244796738028526306e-01,-1.244796738028526306e-01,-1.244796738028526306e-01
-1.964142918586730957e-01,-1.871827691793441772e-01,-1.871827691793441772e-01,-1.871827691793441772e-01,-1.871827691793441772e-01,-1.871827691793441772e-01,-1.871827691793441772e-01,-1.871827691793441772e-01,-1.871827691793441772e-01,-1.871827691793441772e-01,-1.881427168846130371e-01,-1.881427168846130371e-01,-1.881427168846130371e-01,-1.881427168846130371e-01,-1.881427168846130371e-01,-1.881427168846130371e-01,-1.830037087202072144e-01,-1.830037087202072144e-01,-1.830037087202072144e-01,-1.830037087202072144e-01,-1.801206320524215698e-01,-1.801206320524215698e-01,-1.801206320524215698e-01,-1.801206320524215698e-01,-1.801206320524215698e-01,-1.801206320524215698e-01,-1.801206320524215698e-01,-1.801206320524215698e-01,-1.801206320524215698e-01,-1.801206320524215698e-01,-1.801206320524215698e-01,-1.801206320524215698e-01,-1.653295010328292847e-01,-1.653295010328292847e-01,-1.653295010328292847e-01,-1.653295010328292847e-01,-1.653295010328292847e-01,-1.653295010328292847e-01,-1.653295010328292847e-01,-1.653295010328292847e-01,-1.653295010328292847e-01,-1.653295010328292847e-01,-1.653295010328292847e-01,-1.653295010328292847e-01,-1.653295010328292847e-01,-9.709165245294570923e-02,-9.709165245294570923e-02,-9.709165245294570923e-02,-9.709165245294570923e-02,-9.709165245294570923e-02,-9.709165245294570923e-02,-9.709165245294570923e-02,-9.709165245294570923e-02,-9.709165245294570923e-02,-9.709165245294570923e-02,-9.709165245294570923e-02,-9.709165245294570923e-02,-9.709165245294570923e-02,-9.709165245294570923e-02,-1.272329241037368774e-01,3.480461612343788147e-02,3.480461612343788147e-02,3.480461612343788147e-02,3.480461612343788147e-02,3.480461612343788147e-02,3.480461612343788147e-02,3.480461612343788147e-02,3.480461612343788147e-02,3.480461612343788147e-02,3.480461612343788147e-02,3.480461612343788147e-02,3.480461612343788147e-02,3.480461612343788147e-02,3.480461612343788147e-02,3.480461612343788147e-02,3.069865331053733826e-02,3.069865331053733826e-02,3.069865331053733826e-02,3.069865331053733826e-02,3.069865331053733826e-02,3.069865331053733826e-02,3.069865331053733826e-02,3.069865331053733826e-02,3.069865331053733826e-02,3.069865331053733826e-02,3.069865331053733826e-02,3.069865331053733826e-02,3.069865331053733826e-02,3.069865331053733826e-02,2.403554692864418030e-02,2.403554692864418030e-02,2.403554692864418030e-02,2.403554692864418030e-02,2.403554692864418030e-02,2.403554692864418030e-02,2.403554692864418030e-02,2.403554692864418030e-02,2.403554692864418030e-02,2.403554692864418030e-02,2.403554692864418030e-02,2.403554692864418030e-02,2.403554692864418030e-02,4.068177938461303711e-02,4.068177938461303711e-02,4.068177938461303711e-02,4.068177938461303711e-02,4.068177938461303711e-02,4.068177938461303711e-02,4.068177938461303711e-02,4.068177938461303711e-02,4.068177938461303711e-02,4.068177938461303711e-02,-1.232361793518066406e-01,-1.232361793518066406e-01,-1.232361793518066406e-01,-1.232361793518066406e-01
-2.210455238819122314e-01,-2.167509347200393677e-01,-2.167509347200393677e-01,-2.167509347200393677e-01,-2.167509347200393677e-01,-2.167509347200393677e-01,-2.167509347200393677e-01,-2.167509347200393677e-01,-2.167509347200393677e-01,-2.167509347200393677e-01,-2.132495939731597900e-01,-2.132495939731597900e-01,-2.132495939731597900e-01,-2.132495939731597900e-01,-2.132495939731597900e-01,-2.132495939731597900e-01,-2.094442993402481079e-01,-2.094442993402481079e-01,-2.094442993402481079e-01,-2.094442993402481079e-01,-2.095494866371154785e-01,-2.095494866371154785e-01,-2.095494866371154785e-01,-2.095494866371154785e-01,-2.095494866371154785e-01,-2.095494866371154785e-01,-2.095494866371154785e-01,-2.095494866371154785e-01,-2.095494866371154785e-01,-2.095494866371154785e-01,-2.095494866371154785e-01,-2.095494866371154785e-01,-1.942633390426635742e-01,-1.942633390426635742e-01,-1.942633390426635742e-01,-1.942633390426635742e-01,-1.942633390426635742e-01,-1.942633390426635742e-01,-1.942633390426635742e-01,-1.942633390426635742e-01,-1.942633390426635742e-01,-1.942633390426635742e-01,-1.942633390426635742e-01,-1.942633390426635742e-01,-1.942633390426635742e-01,-1.085213646292686462e-01,-1.085213646292686462e-01,-1.085213646292686462e-01,-1.085213646292686462e-01,-1.085213646292686462e-01,-1.085213646292686462e-01,-1.085213646292686462e-01,-1.085213646292686462e-01,-1.085213646292686462e-01,-1.085213646292686462e-01,-1.085213646292686462e-01,-1.085213646292686462e-01,-1.085213646292686462e-01,-1.085213646292686462e-01,-1.314436644315719604e-01,3.373066335916519165e-02,3.373066335916519165e-02,3.373066335916519165e-02,3.373066335916519165e-02,3.373066335916519165e-02,3.373066335916519165e-02,3.373066335916519165e-02,3.373066335916519165e-02,3.373066335916519165e-02,3.373066335916519165e-02,3.373066335916519165e-02,3.373066335916519165e-02,3.373066335916519165e-02,3.373066335916519165e-02,3.373066335916519165e-02,2.816925197839736938e-02,2.816925197839736938e-02,2.816925197839736938e-02,2.816925197839736938e-02,2.816925197839736938e-02,2.816925197839736938e-02,2.816925197839736938e-02,2.816925197839736938e-02,2.816925197839736938e-02,2.816925197839736938e-02,2.816925197839736938e-02,2.816925197839736938e-02,2.816925197839736938e-02,2.816925197839736938e-02,1.942525245249271393e-02,1.942525245249271393e-02,1.942525245249271393e-02,1.942525245249271393e-02,1.942525245249271393e-02,1.942525245249271393e-02,1.942525245249271393e-02,1.942525245249271393e-02,1.942525245249271393e-02,1.942525245249271393e-02,1.942525245249271393e-02,1.942525245249271393e-02,1.942525245249271393e-02,4.124601930379867554e-02,4.124601930379867554e-02,4.124601930379867554e-02,4.124601930379867554e-02,4.124601930379867554e-02,4.124601930379867554e-02,4.124601930379867554e-02,4.124601930379867554e-02,4.124601930379867554e-02,4.124601930379867554e-02,-1.221216171979904175e-01,-1.221216171979904175e-01,-1.221216171979904175e-01,-1.221216171979904175e-01
-2.333156466484069824e-01,-2.292571514844894409e-01,-2.292571514844894409e-01,-2.292571514844894409e-01,-2.292571514844894409e-01,-2.292571514844894409e-01,-2.292571514844894409e-01,-2.292571514844894409e-01,-2.292571514844894409e-01,-2.292571514844894409e-01,-2.268034368753433228e-01,-2.268034368753433228e-01,-2.268034368753433228e-01,-2.268034368753433228e-01,-2.268034368753433228e-01,-2.268034368753433228e-01,-2.110618203878402710e-01,-2.110618203878402710e-01,-2.110618203878402710e-01,-2.110618203878402710e-01,-2.158967852592468262e-01,-2.158967852592468262e-01,-2.158967852592468262e-01,-2.158967852592468262e-01,-2.158967852592468262e-01,-2.158967852592468262e-01,-2.158967852592468262e-01,-2.158967852592468262e-01,-2.158967852592468262e-01,-2.158967852592468262e-01,-2.158967852592468262e-01,-2.158967852592468262e-01,-2.014527916908264160e-01,-2.014527916908264160e-01,-2.014527916908264160e-01,-2.014527916908264160e-01,-2.014527916908264160e-01,-2.014527916908264160e-01,-2.014527916908264160e-01,-2.014527916908264160e-01,-2.014527916908264160e-01,-2.014527916908264160e-01,-2.014527916908264160e-01,-2.014527916908264160e-01,-2.014527916908264160e-01,-1.181975826621055603e-01,-1.181975826621055603e-01,-1.181975826621055603e-01,-1.181975826621055603e-01,-1.181975826621055603e-01,-1.181975826621055603e-01,-1.181975826621055603e-01,-1.181975826621055603e-01,-1.181975826621055603e-01,-1.181975826621055603e-01,-1.181975826621055603e-01,-1.181975826621055603e-01,-1.181975826621055603e-01,-1.181975826621055603e-01,-1.364693045616149902e-01,2.413345687091350555e-02,2.413345687091350555e-02,2.413345687091350555e-02,2.413345687091350555e-02,2.413345687091350555e-02,2.413345687091350555e-02,2.413345687091350555e-02,2.413345687091350555e-02,2.413345687091350555e-02,2.413345687091350555e-02,2.413345687091350555e-02,2.413345687091350555e-02,2.413345687091350555e-02,2.413345687091350555e-02,2.413345687091350555e-02,1.768882572650909424e-02,1.768882572650909424e-02,1.768882572650909424e-02,1.768882572650909424e-02,1.768882572650909424e-02,1.768882572650909424e-02,1.768882572650909424e-02,1.768882572650909424e-02,1.768882572650909424e-02,1.768882572650909424e-02,1.768882572650909424e-02,1.768882572650909424e-02,1.768882572650909424e-02,1.768882572650909424e-02,1.261481549590826035e-02,1.261481549590826035e-02,1.261481549590826035e-02,1.261481549590826035e-02,1.261481549590826035e-02,1.261481549590826035e-02,1.261481549590826035e-02,1.261481549590826035e-02,1.261481549590826035e-02,1.261481549590826035e-02,1.261481549590826035e-02,1.261481549590826035e-02,1.261481549590826035e-02,3.925669938325881958e-02,3.925669938325881958e-02,3.925669938325881958e-02,3.925669938325881958e-02,3.925669938325881958e-02,3.925669938325881958e-02,3.925669938325881958e-02,3.925669938325881958e-02,3.925669938325881958e-02,3.925669938325881958e-02,-1.332845985889434814e-01,-1.332845985889434814e-01,-1.332845985889434814e-01,-1.332845985889434814e-01
-1.977575421333312988e-01,-1.852537542581558228e-01,-1.852537542581558228e-01,-1.852537542581558228e-01,-1.852537542581558228e-01,-1.852537542581558228e-01,-1.852537542581558228e-01,-1.852537542581558228e-01,-1.852537542581558228e-01,-1.852537542581558228e-01,-1.974065899848937988e-01,-1.974065899848937988e-01,-1.974065899848937988e-01,-1.974065899848937988e-01,-1.974065899848937988e-01,-1.974065899848937988e-01,-1.641454100608825684e-01,-1.641454100608825684e-01,-1.641454100608825684e-01,-1.641454100608825684e-01,-1.726422309875488281e-01,-1.726422309875488281e-01,-1.726422309875488281e-01,-1.726422309875488281e-01,-1.726422309875488281e-01,-1.726422309875488281e-01,-1.726422309875488281e-01,-1.726422309875488281e-01,-1.726422309875488281e-01,-1.726422309875488281e-01,-1.726422309875488281e-01,-1.726422309875488281e-01,-1.616994738578796387e-01,-1.616994738578796387e-01,-1.616994738578796387e-01,-1.616994738578796387e-01,-1.616994738578796387e-01,-1.616994738578796387e-01,-1.616994738578796387e-01,-1.616994738578796387e-01,-1.616994738578796387e-01,-1.616994738578796387e-01,-1.616994738578796387e-01,-1.616994738578796387e-01,-1.616994738578796387e-01,-9.231001883745193481e-02,-9.231001883745193481e-02,-9.231001883745193481e-02,-9.231001883745193481e-02,-9.231001883745193481e-02,-9.231001883745193481e-02,-9.231001883745193481e-02,-9.231001883745193481e-02,-9.231001883745193481e-02,-9.231001883745193481e-02,-9.231001883745193481e-02,-9.231001883745193481e-02,-9.231001883745193481e-02,-9.231001883745193481e-02,-1.085034832358360291e-01,3.768220543861389160e-02,3.768220543861389160e-02,3.768220543861389160e-02,3.768220543861389160e-02,3.768220543861389160e-02,3.768220543861389160e-02,3.768220543861389160e-02,3.768220543861389160e-02,3.768220543861389160e-02,3.768220543861389160e-02,3.768220543861389160e-02,3.768220543861389160e-02,3.768220543861389160e-02,3.768220543861389160e-02,3.768220543861389160e-02,2.996438741683959961e-02,2.996438741683959961e-02,2.996438741683959961e-02,2.996438741683959961e-02,2.996438741683959961e-02,2.996438741683959961e-02,2.996438741683959961e-02,2.996438741683959961e-02,2.996438741683959961e-02,2.996438741683959961e-02,2.996438741683959961e-02,2.996438741683959961e-02,2.996438741683959961e-02,2.996438741683959961e-02,2.642345614731311798e-02,2.642345614731311798e-02,2.642345614731311798e-02,2.642345614731311798e-02,2.642345614731311798e-02,2.642345614731311798e-02,2.642345614731311798e-02,2.642345614731311798e-02,2.642345614731311798e-02,2.642345614731311798e-02,2.642345614731311798e-02,2.642345614731311798e-02,2.642345614731311798e-02,5.489299073815345764e-02,5.489299073815345764e-02,5.489299073815345764e-02,5.489299073815345764e-02,5.489299073815345764e-02,5.489299073815345764e-02,5.489299073815345764e-02,5.489299073815345764e-02,5.489299073815345764e-02,5.489299073815345764e-02,-1.036230102181434631e-01,-1.036230102181434631e-01,-1.036230102181434631e-01,-1.036230102181434631e-01
-1.325460225343704224e-01,-1.229135468602180481e-01,-1.229135468602180481e-01,-1.229135468602180481e-01,-1.229135468602180481e-01,-1.229135468602180481e-01,-1.229135468602180481e-01,-1.229135468602180481e-01,-1.229135468602180481e-01,-1.229135468602180481e-01,-1.392413377761840820e-01,-1.392413377761840820e-01,-1.392413377761840820e-01,-1.392413377761840820e-01,-1.392413377761840820e-01,-1.392413377761840820e-01,-1.102651581168174744e-01,-1.102651581168174744e-01,-1.102651581168174744e-01,-1.102651581168174744e-01,-1.193026006221771240e-01,-1.193026006221771240e-01,-1.193026006221771240e-01,-1.193026006221771240e-01,-1.193026006221771240e-01,-1.193026006221771240e-01,-1.193026006221771240e-01,-1.193026006221771240e-01,-1.193026006221771240e-01,-1.193026006221771240e-01,-1.193026006221771240e-01,-1.193026006221771240e-01,-1.075402796268463135e-01,-1.075402796268463135e-01,-1.075402796268463135e-01,-1.075402796268463135e-01,-1.075402796268463135e-01,-1.075402796268463135e-01,-1.075402796268463135e-01,-1.075402796268463135e-01,-1.075402796268463135e-01,-1.075402796268463135e-01,-1.075402796268463135e-01,-1.075402796268463135e-01,-1.075402796268463135e-01,-4.353334754705429077e-02,-4.353334754705429077e-02,-4.353334754705429077e-02,-4.353334754705429077e-02,-4.353334754705429077e-02,-4.353334754705429077e-02,-4.353334754705429077e-02,-4.353334754705429077e-02,-4.353334754705429077e-02,-4.353334754705429077e-02,-4.353334754705429077e-02,-4.353334754705429077e-02,-4.353334754705429077e-02,-4.353334754705429077e-02,-6.122138351202011108e-02,7.546734809875488281e-02,7.546734809875488281e-02,7.546734809875488281e-02,7.546734809875488281e-02,7.546734809875488281e-02,7.546734809875488281e-02,7.546734809875488281e-02,7.546734809875488281e-02,7.546734809875488281e-02,7.546734809875488281e-02,7.546734809875488281e-02,7.546734809875488281e-02,7.546734809875488281e-02,7.546734809875488281e-02,7.546734809875488281e-02,6.730310618877410889e-02,6.730310618877410889e-02,6.730310618877410889e-02,6.730310618877410889e-02,6.730310618877410889e-02,6.730310618877410889e-02,6.730310618877410889e-02,6.730310618877410889e-02,6.730310618877410889e-02,6.730310618877410889e-02,6.730310618877410889e-02,6.730310618877410889e-02,6.730310618877410889e-02,6.730310618877410889e-02,6.047523394227027893e-02,6.047523394227027893e-02,6.047523394227027893e-02,6.047523394227027893e-02,6.047523394227027893e-02,6.047523394227027893e-02,6.047523394227027893e-02,6.047523394227027893e-02,6.047523394227027893e-02,6.047523394227027893e-02,6.047523394227027893e-02,6.047523394227027893e-02,6.047523394227027893e-02,9.128844738006591797e-02,9.128844738006591797e-02,9.128844738006591797e-02,9.128844738006591797e-02,9.128844738006591797e-02,9.128844738006591797e-02,9.128844738006591797e-02,9.128844738006591797e-02,9.128844738006591797e-02,9.128844738006591797e-02,-4.942765831947326660e-02,-4.942765831947326660e-02,-4.942765831947326660e-02,-4.942765831947326660e-02
-8.166508376598358154e-02,-7.989509403705596924e-02,-7.989509403705596924e-02,-7.989509403705596924e-02,-7.989509403705596924e-02,-7.989509403705596924e-02,-7.989509403705596924e-02,-7.989509403705596924e-02,-7.989509403705596924e-02,-7.989509403705596924e-02,-9.222362190485000610e-02,-9.222362190485000610e-02,-9.222362190485000610e-02,-9.222362190485000610e-02,-9.222362190485000610e-02,-9.222362190485000610e-02,-7.186315208673477173e-02,-7.186315208673477173e-02,-7.186315208673477173e-02,-7.186315208673477173e-02,-7.824484258890151978e-02,-7.824484258890151978e-02,-7.824484258890151978e-02,-7.824484258890151978e-02,-7.824484258890151978e-02,-7.824484258890151978e-02,-7.824484258890151978e-02,-7.824484258890151978e-02,-7.824484258890151978e-02,-7.824484258890151978e-02,-7.824484258890151978e-02,-7.824484258890151978e-02,-6.180027499794960022e-02,-6.180027499794960022e-02,-6.180027499794960022e-02,-6.180027499794960022e-02,-6.180027499794960022e-02,-6.180027499794960022e-02,-6.180027499794960022e-02,-6.180027499794960022e-02,-6.180027499794960022e-02,-6.180027499794960022e-02,-6.180027499794960022e-02,-6.180027499794960022e-02,-6.180027499794960022e-02,-2.931791590526700020e-03,-2.931791590526700020e-03,-2.931791590526700020e-03,-2.931791590526700020e-03,-2.931791590526700020e-03,-2.931791590526700020e-03,-2.931791590526700020e-03,-2.931791590526700020e-03,-2.931791590526700020e-03,-2.931791590526700020e-03,-2.931791590526700020e-03,-2.931791590526700020e-03,-2.931791590526700020e-03,-2.931791590526700020e-03,-2.828611433506011963e-02,1.028008460998535156e-01,1.028008460998535156e-01,1.028008460998535156e-01,1.028008460998535156e-01,1.028008460998535156e-01,1.028008460998535156e-01,1.028008460998535156e-01,1.028008460998535156e-01,1.028008460998535156e-01,1.028008460998535156e-01,1.028008460998535156e-01,1.028008460998535156e-01,1.028008460998535156e-01,1.028008460998535156e-01,1.028008460998535156e-01,9.422816336154937744e-02,9.422816336154937744e-02,9.422816336154937744e-02,9.422816336154937744e-02,9.422816336154937744e-02,9.422816336154937744e-02,9.422816336154937744e-02,9.422816336154937744e-02,9.422816336154937744e-02,9.422816336154937744e-02,9.422816336154937744e-02,9.422816336154937744e-02,9.422816336154937744e-02,9.422816336154937744e-02,8.502292633056640625e-02,8.502292633056640625e-02,8.502292633056640625e-02,8.502292633056640625e-02,8.502292633056640625e-02,8.502292633056640625e-02,8.502292633056640625e-02,8.502292633056640625e-02,8.502292633056640625e-02,8.502292633056640625e-02,8.502292633056640625e-02,8.502292633056640625e-02,8.502292633056640625e-02,1.128494143486022949e-01,1.128494143486022949e-01,1.128494143486022949e-01,1.128494143486022949e-01,1.128494143486022949e-01,1.128494143486022949e-01,1.128494143486022949e-01,1.128494143486022949e-01,1.128494143486022949e-01,1.128494143486022949e-01,-4.059985280036926270e-02,-4.059985280036926270e-02,-4.059985280036926270e-02,-4.059985280036926270e-02
-3.822718933224678040e-02,-4.629490524530410767e-02,-4.629490524530410767e-02,-4.629490524530410767e-02,-4.629490524530410767e-02,-4.629490524530410767e-02,-4.629490524530410767e-02,-4.629490524530410767e-02,-4.629490524530410767e-02,-4.629490524530410767e-02,-4.904079809784889221e-02,-4.904079809784889221e-02,-4.904079809784889221e-02,-4.904079809784889221e-02,-4.904079809784889221e-02,-4.904079809784889221e-02,-4.430280253291130066e-02,-4.430280253291130066e-02,-4.430280253291130066e-02,-4.430280253291130066e-02,-4.480413347482681274e-02,-4.480413347482681274e-02,-4.480413347482681274e-02,-4.480413347482681274e-02,-4.480413347482681274e-02,-4.480413347482681274e-02,-4.480413347482681274e-02,-4.480413347482681274e-02,-4.480413347482681274e-02,-4.480413347482681274e-02,-4.480413347482681274e-02,-4.480413347482681274e-02,-3.011654876172542572e-02,-3.011654876172542572e-02,-3.011654876172542572e-02,-3.011654876172542572e-02,-3.011654876172542572e-02,-3.011654876172542572e-02,-3.011654876172542572e-02,-3.011654876172542572e-02,-3.011654876172542572e-02,-3.011654876172542572e-02,-3.011654876172542572e-02,-3.011654876172542572e-02,-3.011654876172542572e-02,1.883430592715740204e-02,1.883430592715740204e-02,1.883430592715740204e-02,1.883430592715740204e-02,1.883430592715740204e-02,1.883430592715740204e-02,1.883430592715740204e-02,1.883430592715740204e-02,1.883430592715740204e-02,1.883430592715740204e-02,1.883430592715740204e-02,1.883430592715740204e-02,1.883430592715740204e-02,1.883430592715740204e-02,-9.342358447611331940e-03,1.223184242844581604e-01,1.223184242844581604e-01,1.223184242844581604e-01,1.223184242844581604e-01,1.223184242844581604e-01,1.223184242844581604e-01,1.223184242844581604e-01,1.223184242844581604e-01,1.223184242844581604e-01,1.223184242844581604e-01,1.223184242844581604e-01,1.223184242844581604e-01,1.223184242844581604e-01,1.223184242844581604e-01,1.223184242844581604e-01,1.132119297981262207e-01,1.132119297981262207e-01,1.132119297981262207e-01,1.132119297981262207e-01,1.132119297981262207e-01,1.132119297981262207e-01,1.132119297981262207e-01,1.132119297981262207e-01,1.132119297981262207e-01,1.132119297981262207e-01,1.132119297981262207e-01,1.132119297981262207e-01,1.132119297981262207e-01,1.132119297981262207e-01,1.033081039786338806e-01,1.033081039786338806e-01,1.033081039786338806e-01,1.033081039786338806e-01,1.033081039786338806e-01,1.033081039786338806e-01,1.033081039786338806e-01,1.033081039786338806e-01,1.033081039786338806e-01,1.033081039786338806e-01,1.033081039786338806e-01,1.033081039786338806e-01,1.033081039786338806e-01,1.274762451648712158e-01,1.274762451648712158e-01,1.274762451648712158e-01,1.274762451648712158e-01,1.274762451648712158e-01,1.274762451648712158e-01,1.274762451648712158e-01,1.274762451648712158e-01,1.274762451648712158e-01,1.274762451648712158e-01,-2.600690163671970367e-02,-2.600690163671970367e-02,-2.600690163671970367e-02,-2.600690163671970367e-02
-2.235876396298408508e-02,-2.638174965977668762e-02,-2.638174965977668762e-02,-2.638174965977668762e-02,-2.638174965977668762e-02,-2.638174965977668762e-02,-2.638174965977668762e-02,-2.638174965977668762e-02,-2.638174965977668762e-02,-2.638174965977668762e-02,-2.848615869879722595e-02,-2.848615869879722595e-02,-2.848615869879722595e-02,-2.848615869879722595e-02,-2.848615869879722595e-02,-2.848615869879722595e-02,-2.936561033129692078e-02,-2.936561033129692078e-02,-2.936561033129692078e-02,-2.936561033129692078e-02,-2.644828334450721741e-02,-2.644828334450721741e-02,-2.644828334450721741e-02,-2.644828334450721741e-02,-2.644828334450721741e-02,-2.644828334450721741e-02,-2.644828334450721741e-02,-2.644828334450721741e-02,-2.644828334450721741e-02,-2.644828334450721741e-02,-2.644828334450721741e-02,-2.644828334450721741e-02,-9.411660023033618927e-03,-9.411660023033618927e-03,-9.411660023033618927e-03,-9.411660023033618927e-03,-9.411660023033618927e-03,-9.411660023033618927e-03,-9.411660023033618927e-03,-9.411660023033618927e-03,-9.411660023033618927e-03,-9.411660023033618927e-03,-9.411660023033618927e-03,-9.411660023033618927e-03,-9.411660023033618927e-03,3.752624988555908203e-02,3.752624988555908203e-02,3.752624988555908203e-02,3.752624988555908203e-02,3.752624988555908203e-02,3.752624988555908203e-02,3.752624988555908203e-02,3.752624988555908203e-02,3.752624988555908203e-02,3.752624988555908203e-02,3.752624988555908203e-02,3.752624988555908203e-02,3.752624988555908203e-02,3.752624988555908203e-02,2.717181807383894920e-03,1.357198804616928101e-01,1.357198804616928101e-01,1.357198804616928101e-01,1.357198804616928101e-01,1.357198804616928101e-01,1.357198804616928101e-01,1.357198804616928101e-01,1.357198804616928101e-01,1.357198804616928101e-01,1.357198804616928101e-01,1.357198804616928101e-01,1.357198804616928101e-01,1.357198804616928101e-01,1.357198804616928101e-01,1.357198804616928101e-01,1.250795125961303711e-01,1.250795125961303711e-01,1.250795125961303711e-01,1.250795125961303711e-01,1.250795125961303711e-01,1.250795125961303711e-01,1.250795125961303711e-01,1.250795125961303711e-01,1.250795125961303711e-01,1.250795125961303711e-01,1.250795125961303711e-01,1.250795125961303711e-01,1.250795125961303711e-01,1.250795125961303711e-01,1.132086291909217834e-01,1.132086291909217834e-01,1.132086291909217834e-01,1.132086291909217834e-01,1.132086291909217834e-01,1.132086291909217834e-01,1.132086291909217834e-01,1.132086291909217834e-01,1.132086291909217834e-01,1.132086291909217834e-01,1.132086291909217834e-01,1.132086291909217834e-01,1.132086291909217834e-01,1.380867660045623779e-01,1.380867660045623779e-01,1.380867660045623779e-01,1.380867660045623779e-01,1.380867660045623779e-01,1.380867660045623779e-01,1.380867660045623779e-01,1.380867660045623779e-01,1.380867660045623779e-01,1.380867660045623779e-01,-1.604189723730087280e-02,-1.604189723730087280e-02,-1.604189723730087280e-02,-1.604189723730087280e-02
-1.571840606629848480e-02,-2.013189159333705902e-02,-2.013189159333705902e-02,-2.013189159333705902e-02,-2.013189159333705902e-02,-2.013189159333705902e-02,-2.013189159333705902e-02,-2.013189159333705902e-02,-2.013189159333705902e-02,-2.013189159333705902e-02,-2.417406067252159119e-02,-2.417406067252159119e-02,-2.417406067252159119e-02,-2.417406067252159119e-02,-2.417406067252159119e-02,-2.417406067252159119e-02,-2.522049285471439362e-02,-2.522049285471439362e-02,-2.522049285471439362e-02,-2.522049285471439362e-02,-2.093061245977878571e-02,-2.093061245977878571e-02,-2.093061245977878571e-02,-2.093061245977878571e-02,-2.093061245977878571e-02,-2.093061245977878571e-02,-2.093061245977878571e-02,-2.093061245977878571e-02,-2.093061245977878571e-02,-2.093061245977878571e-02,-2.093061245977878571e-02,-2.093061245977878571e-02,-3.048041602596640587e-03,-3.048041602596640587e-03,-3.048041602596640587e-03,-3.048041602596640587e-03,-3.048041602596640587e-03,-3.048041602596640587e-03,-3.048041602596640587e-03,-3.048041602596640587e-03,-3.048041602596640587e-03,-3.048041602596640587e-03,-3.048041602596640587e-03,-3.048041602596640587e-03,-3.048041602596640587e-03,4.268760979175567627e-02,4.268760979175567627e-02,4.268760979175567627e-02,4.268760979175567627e-02,4.268760979175567627e-02,4.268760979175567627e-02,4.268760979175567627e-02,4.268760979175567627e-02,4.268760979175567627e-02,4.268760979175567627e-02,4.268760979175567627e-02,4.268760979175567627e-02,4.268760979175567627e-02,4.268760979175567627e-02,1.166366692632436752e-02,1.375675797462463379e-01,1.375675797462463379e-01,1.375675797462463379e-01,1.375675797462463379e-01,1.375675797462463379e-01,1.375675797462463379e-01,1.375675797462463379e-01,1.375675797462463379e-01,1.375675797462463379e-01,1.375675797462463379e-01,1.375675797462463379e-01,1.375675797462463379e-01,1.375675797462463379e-01,1.375675797462463379e-01,1.375675797462463379e-01,1.270396858453750610e-01,1.270396858453750610e-01,1.270396858453750610e-01,1.270396858453750610e-01,1.270396858453750610e-01,1.270396858453750610e-01,1.270396858453750610e-01,1.270396858453750610e-01,1.270396858453750610e-01,1.270396858453750610e-01,1.270396858453750610e-01,1.270396858453750610e-01,1.270396858453750610e-01,1.270396858453750610e-01,1.173546314239501953e-01,1.173546314239501953e-01,1.173546314239501953e-01,1.173546314239501953e-01,1.173546314239501953e-01,1.173546314239501953e-01,1.173546314239501953e-01,1.173546314239501953e-01,1.173546314239501953e-01,1.173546314239501953e-01,1.173546314239501953e-01,1.173546314239501953e-01,1.173546314239501953e-01,1.414088755846023560e-01,1.414088755846023560e-01,1.414088755846023560e-01,1.414088755846023560e-01,1.414088755846023560e-01,1.414088755846023560e-01,1.414088755846023560e-01,1.414088755846023560e-01,1.414088755846023560e-01,1.414088755846023560e-01,-3.263245336711406708e-03,-3.263245336711406708e-03,-3.263245336711406708e-03,-3.263245336711406708e-03
-2.594737522304058075e-02,-2.094391733407974243e-02,-2.094391733407974243e-02,-2.094391733407974243e-02,-2.094391733407974243e-02,-2.094391733407974243e-02,-2.094391733407974243e-02,-2.094391733407974243e-02,-2.094391733407974243e-02,-2.094391733407974243e-02,-2.432098239660263062e-02,-2.432098239660263062e-02,-2.432098239660263062e-02,-2.432098239660263062e-02,-2.432098239660263062e-02,-2.432098239660263062e-02,-1.507828757166862488e-02,-1.507828757166862488e-02,-1.507828757166862488e-02,-1.507828757166862488e-02,-8.655283600091934204e-03,-8.655283600091934204e-03,-8.655283600091934204e-03,-8.655283600091934204e-03,-8.655283600091934204e-03,-8.655283600091934204e-03,-8.655283600091934204e-03,-8.655283600091934204e-03,-8.655283600091934204e-03,-8.655283600091934204e-03,-8.655283600091934204e-03,-8.655283600091934204e-03,7.392419967800378799e-03,7.392419967800378799e-03,7.392419967800378799e-03,7.392419967800378799e-03,7.392419967800378799e-03,7.392419967800378799e-03,7.392419967800378799e-03,7.392419967800378799e-03,7.392419967800378799e-03,7.392419967800378799e-03,7.392419967800378799e-03,7.392419967800378799e-03,7.392419967800378799e-03,5.098013952374458313e-02,5.098013952374458313e-02,5.098013952374458313e-02,5.098013952374458313e-02,5.098013952374458313e-02,5.098013952374458313e-02,5.098013952374458313e-02,5.098013952374458313e-02,5.098013952374458313e-02,5.098013952374458313e-02,5.098013952374458313e-02,5.098013952374458313e-02,5.098013952374458313e-02,5.098013952374458313e-02,2.551722340285778046e-02,1.440757662057876587e-01,1.440757662057876587e-01,1.440757662057876587e-01,1.440757662057876587e-01,1.440757662057876587e-01,1.440757662057876587e-01,1.440757662057876587e-01,1.440757662057876587e-01,1.440757662057876587e-01,1.440757662057876587e-01,1.440757662057876587e-01,1.440757662057876587e-01,1.440757662057876587e-01,1.440757662057876587e-01,1.440757662057876587e-01,1.327728182077407837e-01,1.327728182077407837e-01,1.327728182077407837e-01,1.327728182077407837e-01,1.327728182077407837e-01,1.327728182077407837e-01,1.327728182077407837e-01,1.327728182077407837e-01,1.327728182077407837e-01,1.327728182077407837e-01,1.327728182077407837e-01,1.327728182077407837e-01,1.327728182077407837e-01,1.327728182077407837e-01,1.223822608590126038e-01,1.223822608590126038e-01,1.223822608590126038e-01,1.223822608590126038e-01,1.223822608590126038e-01,1.223822608590126038e-01,1.223822608590126038e-01,1.223822608590126038e-01,1.223822608590126038e-01,1.223822608590126038e-01,1.223822608590126038e-01,1.223822608590126038e-01,1.223822608590126038e-01,1.425331979990005493e-01,1.425331979990005493e-01,1.425331979990005493e-01,1.425331979990005493e-01,1.425331979990005493e-01,1.425331979990005493e-01,1.425331979990005493e-01,1.425331979990005493e-01,1.425331979990005493e-01,1.425331979990005493e-01,-8.052012883126735687e-03,-8.052012883126735687e-03,-8.052012883126735687e-03,-8.052012883126735687e-03
-7.662144303321838379e-02,-7.641547173261642456e-02,-7.641547173261642456e-02,-7.641547173261642456e-02,-7.641547173261642456e-02,-7.641547173261642456e-02,-7.641547173261642456e-02,-7.641547173261642456e-02,-7.641547173261642456e-02,-7.641547173261642456e-02,-7.196351885795593262e-02,-7.196351885795593262e-02,-7.196351885795593262e-02,-7.196351885795593262e-02,-7.196351885795593262e-02,-7.196351885795593262e-02,-6.883557140827178955e-02,-6.883557140827178955e-02,-6.883557140827178955e-02,-6.883557140827178955e-02,-5.950410291552543640e-02,-5.950410291552543640e-02,-5.950410291552543640e-02,-5.950410291552543640e-02,-5.950410291552543640e-02,-5.950410291552543640e-02,-5.950410291552543640e-02,-5.950410291552543640e-02,-5.950410291552543640e-02,-5.950410291552543640e-02,-5.950410291552543640e-02,-5.950410291552543640e-02,-4.330764338374137878e-02,-4.330764338374137878e-02,-4.330764338374137878e-02,-4.330764338374137878e-02,-4.330764338374137878e-02,-4.330764338374137878e-02,-4.330764338374137878e-02,-4.330764338374137878e-02,-4.330764338374137878e-02,-4.330764338374137878e-02,-4.330764338374137878e-02,-4.330764338374137878e-02,-4.330764338374137878e-02,4.156879149377346039e-03,4.156879149377346039e-03,4.156879149377346039e-03,4.156879149377346039e-03,4.156879149377346039e-03,4.156879149377346039e-03,4.156879149377346039e-03,4.156879149377346039e-03,4.156879149377346039e-03,4.156879149377346039e-03,4.156879149377346039e-03,4.156879149377346039e-03,4.156879149377346039e-03,4.156879149377346039e-03,-3.172159194946289062e-02,1.007477715611457825e-01,1.007477715611457825e-01,1.007477715611457825e-01,1.007477715611457825e-01,1.007477715611457825e-01,1.007477715611457825e-01,1.007477715611457825e-01,1.007477715611457825e-01,1.007477715611457825e-01,1.007477715611457825e-01,1.007477715611457825e-01,1.007477715611457825e-01,1.007477715611457825e-01,1.007477715611457825e-01,1.007477715611457825e-01,8.947082608938217163e-02,8.947082608938217163e-02,8.947082608938217163e-02,8.947082608938217163e-02,8.947082608938217163e-02,8.947082608938217163e-02,8.947082608938217163e-02,8.947082608938217163e-02,8.947082608938217163e-02,8.947082608938217163e-02,8.947082608938217163e-02,8.947082608938217163e-02,8.947082608938217163e-02,8.947082608938217163e-02,8.037091046571731567e-02,8.037091046571731567e-02,8.037091046571731567e-02,8.037091046571731567e-02,8.037091046571731567e-02,8.037091046571731567e-02,8.037091046571731567e-02,8.037091046571731567e-02,8.037091046571731567e-02,8.037091046571731567e-02,8.037091046571731567e-02,8.037091046571731567e-02,8.037091046571731567e-02,9.625665098428726196e-02,9.625665098428726196e-02,9.625665098428726196e-02,9.625665098428726196e-02,9.625665098428726196e-02,9.625665098428726196e-02,9.625665098428726196e-02,9.625665098428726196e-02,9.625665098428726196e-02,9.625665098428726196e-02,-8.292577415704727173e-02,-8.292577415704727173e-02,-8.292577415704727173e-02,-8.292577415704727173e-02
-1.305413991212844849e-01,-1.348751783370971680e-01,-1.348751783370971680e-01,-1.348751783370971680e-01,-1.348751783370971680e-01,-1.348751783370971680e-01,-1.348751783370971680e-01,-1.348751783370971680e-01,-1.348751783370971680e-01,-1.348751783370971680e-01,-1.235870644450187683e-01,-1.235870644450187683e-01,-1.235870644450187683e-01,-1.235870644450187683e-01,-1.235870644450187683e-01,-1.235870644450187683e-01,-1.268518269062042236e-01,-1.268518269062042236e-01,-1.268518269062042236e-01,-1.268518269062042236e-01,-1.160732880234718323e-01,-1.160732880234718323e-01,-1.160732880234718323e-01,-1.160732880234718323e-01,-1.160732880234718323e-01,-1.160732880234718323e-01,-1.160732880234718323e-01,-1.160732880234718323e-01,-1.160732880234718323e-01,-1.160732880234718323e-01,-1.160732880234718323e-01,-1.160732880234718323e-01,-1.009985208511352539e-01,-1.009985208511352539e-01,-1.009985208511352539e-01,-1.009985208511352539e-01,-1.009985208511352539e-01,-1.009985208511352539e-01,-1.009985208511352539e-01,-1.009985208511352539e-01,-1.009985208511352539e-01,-1.009985208511352539e-01,-1.009985208511352539e-01,-1.009985208511352539e-01,-1.009985208511352539e-01,-5.215676501393318176e-02,-5.215676501393318176e-02,-5.215676501393318176e-02,-5.215676501393318176e-02,-5.215676501393318176e-02,-5.215676501393318176e-02,-5.215676501393318176e-02,-5.215676501393318176e-02,-5.215676501393318176e-02,-5.215676501393318176e-02,-5.215676501393318176e-02,-5.215676501393318176e-02,-5.215676501393318176e-02,-5.215676501393318176e-02,-9.401129186153411865e-02,5.717880651354789734e-02,5.717880651354789734e-02,5.717880651354789734e-02,5.717880651354789734e-02,5.717880651354789734e-02,5.717880651354789734e-02,5.717880651354789734e-02,5.717880651354789734e-02,5.717880651354789734e-02,5.717880651354789734e-02,5.717880651354789734e-02,5.717880651354789734e-02,5.717880651354789734e-02,5.717880651354789734e-02,5.717880651354789734e-02,4.590507596731185913e-02,4.590507596731185913e-02,4.590507596731185913e-02,4.590507596731185913e-02,4.590507596731185913e-02,4.590507596731185913e-02,4.590507596731185913e-02,4.590507596731185913e-02,4.590507596731185913e-02,4.590507596731185913e-02,4.590507596731185913e-02,4.590507596731185913e-02,4.590507596731185913e-02,4.590507596731185913e-02,3.911372646689414978e-02,3.911372646689414978e-02,3.911372646689414978e-02,3.911372646689414978e-02,3.911372646689414978e-02,3.911372646689414978e-02,3.911372646689414978e-02,3.911372646689414978e-02,3.911372646689414978e-02,3.911372646689414978e-02,3.911372646689414978e-02,3.911372646689414978e-02,3.911372646689414978e-02,5.664444342255592346e-02,5.664444342255592346e-02,5.664444342255592346e-02,5.664444342255592346e-02,5.664444342255592346e-02,5.664444342255592346e-02,5.664444342255592346e-02,5.664444342255592346e-02,5.664444342255592346e-02,5.664444342255592346e-02,-1.326817125082015991e-01,-1.326817125082015991e-01,-1.326817125082015991e-01,-1.326817125082015991e-01
-1.602076143026351929e-01,-1.600515842437744141e-01,-1.600515842437744141e-01,-1.600515842437744141e-01,-1.600515842437744141e-01,-1.600515842437744141e-01,-1.600515842437744141e-01,-1.600515842437744141e-01,-1.600515842437744141e-01,-1.600515842437744141e-01,-1.496967524290084839e-01,-1.496967524290084839e-01,-1.496967524290084839e-01,-1.496967524290084839e-01,-1.496967524290084839e-01,-1.496967524290084839e-01,-1.511003971099853516e-01,-1.511003971099853516e-01,-1.511003971099853516e-01,-1.511003971099853516e-01,-1.421027630567550659e-01,-1.421027630567550659e-01,-1.421027630567550659e-01,-1.421027630567550659e-01,-1.421027630567550659e-01,-1.421027630567550659e-01,-1.421027630567550659e-01,-1.421027630567550659e-01,-1.421027630567550659e-01,-1.421027630567550659e-01,-1.421027630567550659e-01,-1.421027630567550659e-01,-1.315743327140808105e-01,-1.315743327140808105e-01,-1.315743327140808105e-01,-1.315743327140808105e-01,-1.315743327140808105e-01,-1.315743327140808105e-01,-1.315743327140808105e-01,-1.315743327140808105e-01,-1.315743327140808105e-01,-1.315743327140808105e-01,-1.315743327140808105e-01,-1.315743327140808105e-01,-1.315743327140808105e-01,-8.003778755664825439e-02,-8.003778755664825439e-02,-8.003778755664825439e-02,-8.003778755664825439e-02,-8.003778755664825439e-02,-8.003778755664825439e-02,-8.003778755664825439e-02,-8.003778755664825439e-02,-8.003778755664825439e-02,-8.003778755664825439e-02,-8.003778755664825439e-02,-8.003778755664825439e-02,-8.003778755664825439e-02,-8.003778755664825439e-02,-1.216338500380516052e-01,3.408531099557876587e-02,3.408531099557876587e-02,3.408531099557876587e-02,3.408531099557876587e-02,3.408531099557876587e-02,3.408531099557876587e-02,3.408531099557876587e-02,3.408531099557876587e-02,3.408531099557876587e-02,3.408531099557876587e-02,3.408531099557876587e-02,3.408531099557876587e-02,3.408531099557876587e-02,3.408531099557876587e-02,3.408531099557876587e-02,2.587809972465038300e-02,2.587809972465038300e-02,2.587809972465038300e-02,2.587809972465038300e-02,2.587809972465038300e-02,2.587809972465038300e-02,2.587809972465038300e-02,2.587809972465038300e-02,2.587809972465038300e-02,2.587809972465038300e-02,2.587809972465038300e-02,2.587809972465038300e-02,2.587809972465038300e-02,2.587809972465038300e-02,1.989756524562835693e-02,1.989756524562835693e-02,1.989756524562835693e-02,1.989756524562835693e-02,1.989756524562835693e-02,1.989756524562835693e-02,1.989756524562835693e-02,1.989756524562835693e-02,1.989756524562835693e-02,1.989756524562835693e-02,1.989756524562835693e-02,1.989756524562835693e-02,1.989756524562835693e-02,3.812140226364135742e-02,3.812140226364135742e-02,3.812140226364135742e-02,3.812140226364135742e-02,3.812140226364135742e-02,3.812140226364135742e-02,3.812140226364135742e-02,3.812140226364135742e-02,3.812140226364135742e-02,3.812140226364135742e-02,-1.355317533016204834e-01,-1.355317533016204834e-01,-1.355317533016204834e-01,-1.355317533016204834e-01
-2.049656510353088379e-01,-2.057851999998092651e-01,-2.057851999998092651e-01,-2.057851999998092651e-01,-2.057851999998092651e-01,-2.057851999998092651e-01,-2.057851999998092651e-01,-2.057851999998092651e-01,-2.057851999998092651e-01,-2.057851999998092651e-01,-2.008119672536849976e-01,-2.008119672536849976e-01,-2.008119672536849976e-01,-2.008119672536849976e-01,-2.008119672536849976e-01,-2.008119672536849976e-01,-2.057690769433975220e-01,-2.057690769433975220e-01,-2.057690769433975220e-01,-2.057690769433975220e-01,-2.056881934404373169e-01,-2.056881934404373169e-01,-2.056881934404373169e-01,-2.056881934404373169e-01,-2.056881934404373169e-01,-2.056881934404373169e-01,-2.056881934404373169e-01,-2.056881934404373169e-01,-2.056881934404373169e-01,-2.056881934404373169e-01,-2.056881934404373169e-01,-2.056881934404373169e-01,-1.981718242168426514e-01,-1.981718242168426514e-01,-1.981718242168426514e-01,-1.981718242168426514e-01,-1.981718242168426514e-01,-1.981718242168426514e-01,-1.981718242168426514e-01,-1.981718242168426514e-01,-1.981718242168426514e-01,-1.981718242168426514e-01,-1.981718242168426514e-01,-1.981718242168426514e-01,-1.981718242168426514e-01,-1.304773092269897461e-01,-1.304773092269897461e-01,-1.304773092269897461e-01,-1.304773092269897461e-01,-1.304773092269897461e-01,-1.304773092269897461e-01,-1.304773092269897461e-01,-1.304773092269897461e-01,-1.304773092269897461e-01,-1.304773092269897461e-01,-1.304773092269897461e-01,-1.304773092269897461e-01,-1.304773092269897461e-01,-1.304773092269897461e-01,-1.696189492940902710e-01,-3.124120878055691719e-03,-3.124120878055691719e-03,-3.124120878055691719e-03,-3.124120878055691719e-03,-3.124120878055691719e-03,-3.124120878055691719e-03,-3.124120878055691719e-03,-3.124120878055691719e-03,-3.124120878055691719e-03,-3.124120878055691719e-03,-3.124120878055691719e-03,-3.124120878055691719e-03,-3.124120878055691719e-03,-3.124120878055691719e-03,-3.124120878055691719e-03,-9.884601458907127380e-03,-9.884601458907127380e-03,-9.884601458907127380e-03,-9.884601458907127380e-03,-9.884601458907127380e-03,-9.884601458907127380e-03,-9.884601458907127380e-03,-9.884601458907127380e-03,-9.884601458907127380e-03,-9.884601458907127380e-03,-9.884601458907127380e-03,-9.884601458907127380e-03,-9.884601458907127380e-03,-9.884601458907127380e-03,-1.857563666999340057e-02,-1.857563666999340057e-02,-1.857563666999340057e-02,-1.857563666999340057e-02,-1.857563666999340057e-02,-1.857563666999340057e-02,-1.857563666999340057e-02,-1.857563666999340057e-02,-1.857563666999340057e-02,-1.857563666999340057e-02,-1.857563666999340057e-02,-1.857563666999340057e-02,-1.857563666999340057e-02,-1.347449258901178837e-03,-1.347449258901178837e-03,-1.347449258901178837e-03,-1.347449258901178837e-03,-1.347449258901178837e-03,-1.347449258901178837e-03,-1.347449258901178837e-03,-1.347449258901178837e-03,-1.347449258901178837e-03,-1.347449258901178837e-03,-1.793519407510757446e-01,-1.793519407510757446e-01,-1.793519407510757446e-01,-1.793519407510757446e-01
-2.286375015974044800e-01,-2.385220080614089966e-01,-2.385220080614089966e-01,-2.385220080614089966e-01,-2.385220080614089966e-01,-2.385220080614089966e-01,-2.385220080614089966e-01,-2.385220080614089966e-01,-2.385220080614089966e-01,-2.385220080614089966e-01,-2.296034693717956543e-01,-2.296034693717956543e-01,-2.296034693717956543e-01,-2.296034693717956543e-01,-2.296034693717956543e-01,-2.296034693717956543e-01,-2.399392277002334595e-01,-2.399392277002334595e-01,-2.399392277002334595e-01,-2.399392277002334595e-01,-2.389996051788330078e-01,-2.389996051788330078e-01,-2.389996051788330078e-01,-2.389996051788330078e-01,-2.389996051788330078e-01,-2.389996051788330078e-01,-2.389996051788330078e-01,-2.389996051788330078e-01,-2.389996051788330078e-01,-2.389996051788330078e-01,-2.389996051788330078e-01,-2.389996051788330078e-01,-2.351083606481552124e-01,-2.351083606481552124e-01,-2.351083606481552124e-01,-2.351083606481552124e-01,-2.351083606481552124e-01,-2.351083606481552124e-01,-2.351083606481552124e-01,-2.351083606481552124e-01,-2.351083606481552124e-01,-2.351083606481552124e-01,-2.351083606481552124e-01,-2.351083606481552124e-01,-2.351083606481552124e-01,-1.586329042911529541e-01,-1.586329042911529541e-01,-1.586329042911529541e-01,-1.586329042911529541e-01,-1.586329042911529541e-01,-1.586329042911529541e-01,-1.586329042911529541e-01,-1.586329042911529541e-01,-1.586329042911529541e-01,-1.586329042911529541e-01,-1.586329042911529541e-01,-1.586329042911529541e-01,-1.586329042911529541e-01,-1.586329042911529541e-01,-1.920543462038040161e-01,-1.541421748697757721e-02,-1.541421748697757721e-02,-1.541421748697757721e-02,-1.541421748697757721e-02,-1.541421748697757721e-02,-1.541421748697757721e-02,-1.541421748697757721e-02,-1.541421748697757721e-02,-1.541421748697757721e-02,-1.541421748697757721e-02,-1.541421748697757721e-02,-1.541421748697757721e-02,-1.541421748697757721e-02,-1.541421748697757721e-02,-1.541421748697757721e-02,-2.412381581962108612e-02,-2.412381581962108612e-02,-2.412381581962108612e-02,-2.412381581962108612e-02,-2.412381581962108612e-02,-2.412381581962108612e-02,-2.412381581962108612e-02,-2.412381581962108612e-02,-2.412381581962108612e-02,-2.412381581962108612e-02,-2.412381581962108612e-02,-2.412381581962108612e-02,-2.412381581962108612e-02,-2.412381581962108612e-02,-3.148635849356651306e-02,-3.148635849356651306e-02,-3.148635849356651306e-02,-3.148635849356651306e-02,-3.148635849356651306e-02,-3.148635849356651306e-02,-3.148635849356651306e-02,-3.148635849356651306e-02,-3.148635849356651306e-02,-3.148635849356651306e-02,-3.148635849356651306e-02,-3.148635849356651306e-02,-3.148635849356651306e-02,-4.423667211085557938e-03,-4.423667211085557938e-03,-4.423667211085557938e-03,-4.423667211085557938e-03,-4.423667211085557938e-03,-4.423667211085557938e-03,-4.423667211085557938e-03,-4.423667211085557938e-03,-4.423667211085557938e-03,-4.423667211085557938e-03,-1.873688250780105591e-01,-1.873688250780105591e-01,-1.873688250780105591e-01,-1.873688250780105591e-01
-1.919853091239929199e-01,-2.029480636119842529e-01,-2.029480636119842529e-01,-2.029480636119842529e-01,-2.029480636119842529e-01,-2.029480636119842529e-01,-2.029480636119842529e-01,-2.029480636119842529e-01,-2.029480636119842529e-01,-2.029480636119842529e-01,-2.004831880331039429e-01,-2.004831880331039429e-01,-2.004831880331039429e-01,-2.004831880331039429e-01,-2.004831880331039429e-01,-2.004831880331039429e-01,-1.990607082843780518e-01,-1.990607082843780518e-01,-1.990607082843780518e-01,-1.990607082843780518e-01,-2.044315338134765625e-01,-2.044315338134765625e-01,-2.044315338134765625e-01,-2.044315338134765625e-01,-2.044315338134765625e-01,-2.044315338134765625e-01,-2.044315338134765625e-01,-2.044315338134765625e-01,-2.044315338134765625e-01,-2.044315338134765625e-01,-2.044315338134765625e-01,-2.044315338134765625e-01,-1.961286813020706177e-01,-1.961286813020706177e-01,-1.961286813020706177e-01,-1.961286813020706177e-01,-1.961286813020706177e-01,-1.961286813020706177e-01,-1.961286813020706177e-01,-1.961286813020706177e-01,-1.961286813020706177e-01,-1.961286813020706177e-01,-1.961286813020706177e-01,-1.961286813020706177e-01,-1.961286813020706177e-01,-1.212820187211036682e-01,-1.212820187211036682e-01,-1.212820187211036682e-01,-1.212820187211036682e-01,-1.212820187211036682e-01,-1.212820187211036682e-01,-1.212820187211036682e-01,-1.212820187211036682e-01,-1.212820187211036682e-01,-1.212820187211036682e-01,-1.212820187211036682e-01,-1.212820187211036682e-01,-1.212820187211036682e-01,-1.212820187211036682e-01,-1.405684500932693481e-01,1.849324442446231842e-02,1.849324442446231842e-02,1.849324442446231842e-02,1.849324442446231842e-02,1.849324442446231842e-02,1.849324442446231842e-02,1.849324442446231842e-02,1.849324442446231842e-02,1.849324442446231842e-02,1.849324442446231842e-02,1.849324442446231842e-02,1.849324442446231842e-02,1.849324442446231842e-02,1.849324442446231842e-02,1.849324442446231842e-02,1.278164796531200409e-02,1.278164796531200409e-02,1.278164796531200409e-02,1.278164796531200409e-02,1.278164796531200409e-02,1.278164796531200409e-02,1.278164796531200409e-02,1.278164796531200409e-02,1.278164796531200409e-02,1.278164796531200409e-02,1.278164796531200409e-02,1.278164796531200409e-02,1.278164796531200409e-02,1.278164796531200409e-02,6.028290372341871262e-03,6.028290372341871262e-03,6.028290372341871262e-03,6.028290372341871262e-03,6.028290372341871262e-03,6.028290372341871262e-03,6.028290372341871262e-03,6.028290372341871262e-03,6.028290372341871262e-03,6.028290372341871262e-03,6.028290372341871262e-03,6.028290372341871262e-03,6.028290372341871262e-03,3.571488335728645325e-02,3.571488335728645325e-02,3.571488335728645325e-02,3.571488335728645325e-02,3.571488335728645325e-02,3.571488335728645325e-02,3.571488335728645325e-02,3.571488335728645325e-02,3.571488335728645325e-02,3.571488335728645325e-02,-1.293195337057113647e-01,-1.293195337057113647e-01,-1.293195337057113647e-01,-1.293195337057113647e-01
-1.434398889541625977e-01,-1.615328937768936157e-01,-1.615328937768936157e-01,-1.615328937768936157e-01,-1.615328937768936157e-01,-1.615328937768936157e-01,-1.615328937768936157e-01,-1.615328937768936157e-01,-1.615328937768936157e-01,-1.615328937768936157e-01,-1.646210402250289917e-01,-1.646210402250289917e-01,-1.646210402250289917e-01,-1.646210402250289917e-01,-1.646210402250289917e-01,-1.646210402250289917e-01,-1.645939201116561890e-01,-1.645939201116561890e-01,-1.645939201116561890e-01,-1.645939201116561890e-01,-1.687404513359069824e-01,-1.687404513359069824e-01,-1.687404513359069824e-01,-1.687404513359069824e-01,-1.687404513359069824e-01,-1.687404513359069824e-01,-1.687404513359069824e-01,-1.687404513359069824e-01,-1.687404513359069824e-01,-1.687404513359069824e-01,-1.687404513359069824e-01,-1.687404513359069824e-01,-1.556336581707000732e-01,-1.556336581707000732e-01,-1.556336581707000732e-01,-1.556336581707000732e-01,-1.556336581707000732e-01,-1.556336581707000732e-01,-1.556336581707000732e-01,-1.556336581707000732e-01,-1.556336581707000732e-01,-1.556336581707000732e-01,-1.556336581707000732e-01,-1.556336581707000732e-01,-1.556336581707000732e-01,-8.159183710813522339e-02,-8.159183710813522339e-02,-8.159183710813522339e-02,-8.159183710813522339e-02,-8.159183710813522339e-02,-8.159183710813522339e-02,-8.159183710813522339e-02,-8.159183710813522339e-02,-8.159183710813522339e-02,-8.159183710813522339e-02,-8.159183710813522339e-02,-8.159183710813522339e-02,-8.159183710813522339e-02,-8.159183710813522339e-02,-1.061663925647735596e-01,5.240689590573310852e-02,5.240689590573310852e-02,5.240689590573310852e-02,5.240689590573310852e-02,5.240689590573310852e-02,5.240689590573310852e-02,5.240689590573310852e-02,5.240689590573310852e-02,5.240689590573310852e-02,5.240689590573310852e-02,5.240689590573310852e-02,5.240689590573310852e-02,5.240689590573310852e-02,5.240689590573310852e-02,5.240689590573310852e-02,4.361486807465553284e-02,4.361486807465553284e-02,4.361486807465553284e-02,4.361486807465553284e-02,4.361486807465553284e-02,4.361486807465553284e-02,4.361486807465553284e-02,4.361486807465553284e-02,4.361486807465553284e-02,4.361486807465553284e-02,4.361486807465553284e-02,4.361486807465553284e-02,4.361486807465553284e-02,4.361486807465553284e-02,3.472849354147911072e-02,3.472849354147911072e-02,3.472849354147911072e-02,3.472849354147911072e-02,3.472849354147911072e-02,3.472849354147911072e-02,3.472849354147911072e-02,3.472849354147911072e-02,3.472849354147911072e-02,3.472849354147911072e-02,3.472849354147911072e-02,3.472849354147911072e-02,3.472849354147911072e-02,7.140526175498962402e-02,7.140526175498962402e-02,7.140526175498962402e-02,7.140526175498962402e-02,7.140526175498962402e-02,7.140526175498962402e-02,7.140526175498962402e-02,7.140526175498962402e-02,7.140526175498962402e-02,7.140526175498962402e-02,-9.469868987798690796e-02,-9.469868987798690796e-02,-9.469868987798690796e-02,-9.469868987798690796e-02
-7.633814215660095215e-02,-9.608125686645507812e-02,-9.608125686645507812e-02,-9.608125686645507812e-02,-9.608125686645507812e-02,-9.608125686645507812e-02,-9.608125686645507812e-02,-9.608125686645507812e-02,-9.608125686645507812e-02,-9.608125686645507812e-02,-1.036197841167449951e-01,-1.036197841167449951e-01,-1.036197841167449951e-01,-1.036197841167449951e-01,-1.036197841167449951e-01,-1.036197841167449951e-01,-1.078571677207946777e-01,-1.078571677207946777e-01,-1.078571677207946777e-01,-1.078571677207946777e-01,-1.130572929978370667e-01,-1.130572929978370667e-01,-1.130572929978370667e-01,-1.130572929978370667e-01,-1.130572929978370667e-01,-1.130572929978370667e-01,-1.130572929978370667e-01,-1.130572929978370667e-01,-1.130572929978370667e-01,-1.130572929978370667e-01,-1.130572929978370667e-01,-1.130572929978370667e-01,-9.507004171609878540e-02,-9.507004171609878540e-02,-9.507004171609878540e-02,-9.507004171609878540e-02,-9.507004171609878540e-02,-9.507004171609878540e-02,-9.507004171609878540e-02,-9.507004171609878540e-02,-9.507004171609878540e-02,-9.507004171609878540e-02,-9.507004171609878540e-02,-9.507004171609878540e-02,-9.507004171609878540e-02,-2.871319651603698730e-02,-2.871319651603698730e-02,-2.871319651603698730e-02,-2.871319651603698730e-02,-2.871319651603698730e-02,-2.871319651603698730e-02,-2.871319651603698730e-02,-2.871319651603698730e-02,-2.871319651603698730e-02,-2.871319651603698730e-02,-2.871319651603698730e-02,-2.871319651603698730e-02,-2.871319651603698730e-02,-2.871319651603698730e-02,-5.913800001144409180e-02,9.270630776882171631e-02,9.270630776882171631e-02,9.270630776882171631e-02,9.270630776882171631e-02,9.270630776882171631e-02,9.270630776882171631e-02,9.270630776882171631e-02,9.270630776882171631e-02,9.270630776882171631e-02,9.270630776882171631e-02,9.270630776882171631e-02,9.270630776882171631e-02,9.270630776882171631e-02,9.270630776882171631e-02,9.270630776882171631e-02,8.371869474649429321e-02,8.371869474649429321e-02,8.371869474649429321e-02,8.371869474649429321e-02,8.371869474649429321e-02,8.371869474649429321e-02,8.371869474649429321e-02,8.371869474649429321e-02,8.371869474649429321e-02,8.371869474649429321e-02,8.371869474649429321e-02,8.371869474649429321e-02,8.371869474649429321e-02,8.371869474649429321e-02,7.543183118104934692e-02,7.543183118104934692e-02,7.543183118104934692e-02,7.543183118104934692e-02,7.543183118104934692e-02,7.543183118104934692e-02,7.543183118104934692e-02,7.543183118104934692e-02,7.543183118104934692e-02,7.543183118104934692e-02,7.543183118104934692e-02,7.543183118104934692e-02,7.543183118104934692e-02,1.039555296301841736e-01,1.039555296301841736e-01,1.039555296301841736e-01,1.039555296301841736e-01,1.039555296301841736e-01,1.039555296301841736e-01,1.039555296301841736e-01,1.039555296301841736e-01,1.039555296301841736e-01,1.039555296301841736e-01,-6.225289404392242432e-02,-6.225289404392242432e-02,-6.225289404392242432e-02,-6.225289404392242432e-02
-4.669724777340888977e-02,-6.501084566116333008e-02,-6.501084566116333008e-02,-6.501084566116333008e-02,-6.501084566116333008e-02,-6.501084566116333008e-02,-6.501084566116333008e-02,-6.501084566116333008e-02,-6.501084566116333008e-02,-6.501084566116333008e-02,-6.847515702247619629e-02,-6.847515702247619629e-02,-6.847515702247619629e-02,-6.847515702247619629e-02,-6.847515702247619629e-02,-6.847515702247619629e-02,-7.159060984849929810e-02,-7.159060984849929810e-02,-7.159060984849929810e-02,-7.159060984849929810e-02,-6.839315593242645264e-02,-6.839315593242645264e-02,-6.839315593242645264e-02,-6.839315593242645264e-02,-6.839315593242645264e-02,-6.839315593242645264e-02,-6.839315593242645264e-02,-6.839315593242645264e-02,-6.839315593242645264e-02,-6.839315593242645264e-02,-6.839315593242645264e-02,-6.839315593242645264e-02,-4.604215919971466064e-02,-4.604215919971466064e-02,-4.604215919971466064e-02,-4.604215919971466064e-02,-4.604215919971466064e-02,-4.604215919971466064e-02,-4.604215919971466064e-02,-4.604215919971466064e-02,-4.604215919971466064e-02,-4.604215919971466064e-02,-4.604215919971466064e-02,-4.604215919971466064e-02,-4.604215919971466064e-02,1.479260250926017761e-02,1.479260250926017761e-02,1.479260250926017761e-02,1.479260250926017761e-02,1.479260250926017761e-02,1.479260250926017761e-02,1.479260250926017761e-02,1.479260250926017761e-02,1.479260250926017761e-02,1.479260250926017761e-02,1.479260250926017761e-02,1.479260250926017761e-02,1.479260250926017761e-02,1.479260250926017761e-02,-2.044379711151123047e-02,1.252826303243637085e-01,1.252826303243637085e-01,1.252826303243637085e-01,1.252826303243637085e-01,1.252826303243637085e-01,1.252826303243637085e-01,1.252826303243637085e-01,1.252826303243637085e-01,1.252826303243637085e-01,1.252826303243637085e-01,1.252826303243637085e-01,1.252826303243637085e-01,1.252826303243637085e-01,1.252826303243637085e-01,1.252826303243637085e-01,1.146802678704261780e-01,1.146802678704261780e-01,1.146802678704261780e-01,1.146802678704261780e-01,1.146802678704261780e-01,1.146802678704261780e-01,1.146802678704261780e-01,1.146802678704261780e-01,1.146802678704261780e-01,1.146802678704261780e-01,1.146802678704261780e-01,1.146802678704261780e-01,1.146802678704261780e-01,1.146802678704261780e-01,1.036852374672889709e-01,1.036852374672889709e-01,1.036852374672889709e-01,1.036852374672889709e-01,1.036852374672889709e-01,1.036852374672889709e-01,1.036852374672889709e-01,1.036852374672889709e-01,1.036852374672889709e-01,1.036852374672889709e-01,1.036852374672889709e-01,1.036852374672889709e-01,1.036852374672889709e-01,1.286226212978363037e-01,1.286226212978363037e-01,1.286226212978363037e-01,1.286226212978363037e-01,1.286226212978363037e-01,1.286226212978363037e-01,1.286226212978363037e-01,1.286226212978363037e-01,1.286226212978363037e-01,1.286226212978363037e-01,-3.688341006636619568e-02,-3.688341006636619568e-02,-3.688341006636619568e-02,-3.688341006636619568e-02
-2.881629951298236847e-02,-3.530826792120933533e-02,-3.530826792120933533e-02,-3.530826792120933533e-02,-3.530826792120933533e-02,-3.530826792120933533e-02,-3.530826792120933533e-02,-3.530826792120933533e-02,-3.530826792120933533e-02,-3.530826792120933533e-02,-3.908704221248626709e-02,-3.908704221248626709e-02,-3.908704221248626709e-02,-3.908704221248626709e-02,-3.908704221248626709e-02,-3.908704221248626709e-02,-3.576784580945968628e-02,-3.576784580945968628e-02,-3.576784580945968628e-02,-3.576784580945968628e-02,-3.387955576181411743e-02,-3.387955576181411743e-02,-3.387955576181411743e-02,-3.387955576181411743e-02,-3.387955576181411743e-02,-3.387955576181411743e-02,-3.387955576181411743e-02,-3.387955576181411743e-02,-3.387955576181411743e-02,-3.387955576181411743e-02,-3.387955576181411743e-02,-3.387955576181411743e-02,-1.431465242058038712e-02,-1.431465242058038712e-02,-1.431465242058038712e-02,-1.431465242058038712e-02,-1.431465242058038712e-02,-1.431465242058038712e-02,-1.431465242058038712e-02,-1.431465242058038712e-02,-1.431465242058038712e-02,-1.431465242058038712e-02,-1.431465242058038712e-02,-1.431465242058038712e-02,-1.431465242058038712e-02,4.115506261587142944e-02,4.115506261587142944e-02,4.115506261587142944e-02,4.115506261587142944e-02,4.115506261587142944e-02,4.115506261587142944e-02,4.115506261587142944e-02,4.115506261587142944e-02,4.115506261587142944e-02,4.115506261587142944e-02,4.115506261587142944e-02,4.115506261587142944e-02,4.115506261587142944e-02,4.115506261587142944e-02,8.485972881317138672e-03,1.470161527395248413e-01,1.470161527395248413e-01,1.470161527395248413e-01,1.470161527395248413e-01,1.470161527395248413e-01,1.470161527395248413e-01,1.470161527395248413e-01,1.470161527395248413e-01,1.470161527395248413e-01,1.470161527395248413e-01,1.470161527395248413e-01,1.470161527395248413e-01,1.470161527395248413e-01,1.470161527395248413e-01,1.470161527395248413e-01,1.370206475257873535e-01,1.370206475257873535e-01,1.370206475257873535e-01,1.370206475257873535e-01,1.370206475257873535e-01,1.370206475257873535e-01,1.370206475257873535e-01,1.370206475257873535e-01,1.370206475257873535e-01,1.370206475257873535e-01,1.370206475257873535e-01,1.370206475257873535e-01,1.370206475257873535e-01,1.370206475257873535e-01,1.253090947866439819e-01,1.253090947866439819e-01,1.253090947866439819e-01,1.253090947866439819e-01,1.253090947866439819e-01,1.253090947866439819e-01,1.253090947866439819e-01,1.253090947866439819e-01,1.253090947866439819e-01,1.253090947866439819e-01,1.253090947866439819e-01,1.253090947866439819e-01,1.253090947866439819e-01,1.544238328933715820e-01,1.544238328933715820e-01,1.544238328933715820e-01,1.544238328933715820e-01,1.544238328933715820e-01,1.544238328933715820e-01,1.544238328933715820e-01,1.544238328933715820e-01,1.544238328933715820e-01,1.544238328933715820e-01,-3.009525127708911896e-03,-3.009525127708911896e-03,-3.009525127708911896e-03,-3.009525127708911896e-03
