-1.661271452903747559e-01,-1.585319191217422485e-01,-1.741938143968582153e-01,-1.684559434652328491e-01,-1.684559434652328491e-01,-1.684559434652328491e-01,-1.843197196722030640e-01,-1.843197196722030640e-01,-1.843197196722030640e-01,-1.843197196722030640e-01,-1.954468190670013428e-01,-1.954468190670013428e-01,-1.954468190670013428e-01,-2.109823822975158691e-01,-2.109823822975158691e-01,-2.109823822975158691e-01,-2.095312625169754028e-01,-2.095312625169754028e-01,-2.041523903608322144e-01,-2.041523903608322144e-01,-2.157094925642013550e-01,-2.157094925642013550e-01,-2.082982510328292847e-01,-2.082982510328292847e-01,-2.082982510328292847e-01,-2.010699510574340820e-01,-2.010699510574340820e-01,-2.010699510574340820e-01,-2.010699510574340820e-01,-1.944938749074935913e-01,-1.944938749074935913e-01,-1.886492520570755005e-01,-1.886492520570755005e-01,-1.886492520570755005e-01,-1.849536299705505371e-01,-1.849536299705505371e-01,-1.839775294065475464e-01,-1.916332840919494629e-01,-1.916332840919494629e-01,-1.916332840919494629e-01,-1.898205876350402832e-01,-1.898205876350402832e-01,-1.898205876350402832e-01,-1.908067315816879272e-01,-1.908067315816879272e-01,-1.908067315816879272e-01,-1.942133903503417969e-01,-1.942133903503417969e-01,-1.974640488624572754e-01,-1.974640488624572754e-01,-2.007471323013305664e-01,-2.007471323013305664e-01,-2.007471323013305664e-01,-2.055266797542572021e-01,-2.055266797542572021e-01,-2.055266797542572021e-01,-2.043833881616592407e-01,-2.043833881616592407e-01,-2.093029022216796875e-01,-2.093029022216796875e-01,-2.093029022216796875e-01,-2.104708403348922729e-01,-2.104708403348922729e-01,-2.104708403348922729e-01,-2.163572609424591064e-01,-2.229015678167343140e-01,-2.229015678167343140e-01,-2.229015678167343140e-01,-2.229015678167343140e-01,-2.188689410686492920e-01,-2.188689410686492920e-01,-2.188689410686492920e-01,-2.188689410686492920e-01,-2.008401006460189819e-01,-2.008401006460189819e-01,-2.008401006460189819e-01,-2.025925964117050171e-01,-8.144311606884002686e-02,-8.144311606884002686e-02,6.483550649136304855e-03,6.483550649136304855e-03,-1.770819574594497681e-01,-1.770819574594497681e-01,-8.755690604448318481e-02,-8.755690604448318481e-02,8.122372627258300781e-02,8.122372627258300781e-02,2.339244186878204346e-01,2.339244186878204346e-01,2.339244186878204346e-01,3.233558237552642822e-01,3.233558237552642822e-01,3.233558237552642822e-01,3.609921038150787354e-01,3.609921038150787354e-01,3.609921038150787354e-01,3.773383796215057373e-01,3.608942329883575439e-01,3.608942329883575439e-01,3.608942329883575439e-01,3.608942329883575439e-01,3.907594680786132812e-01,3.907594680786132812e-01,3.907594680786132812e-01,3.907594680786132812e-01,3.979429900646209717e-01,3.979429900646209717e-01,3.979429900646209717e-01,3.979429900646209717e-01,3.959912657737731934e-01,3.959912657737731934e-01,3.959912657737731934e-01,3.921885490417480469e-01,3.947266340255737305e-01,3.947266340255737305e-01,3.947266340255737305e-01
-1.340180486440658569e-01,-1.255428194999694824e-01,-1.287730336189270020e-01,-1.210577785968780518e-01,-1.210577785968780518e-01,-1.210577785968780518e-01,-1.260159164667129517e-01,-1.260159164667129517e-01,-1.260159164667129517e-01,-1.260159164667129517e-01,-1.284255385398864746e-01,-1.284255385398864746e-01,-1.284255385398864746e-01,-1.400061398744583130e-01,-1.400061398744583130e-01,-1.400061398744583130e-01,-1.362414360046386719e-01,-1.362414360046386719e-01,-1.298363357782363892e-01,-1.298363357782363892e-01,-1.435583978891372681e-01,-1.435583978891372681e-01,-1.358281821012496948e-01,-1.358281821012496948e-01,-1.358281821012496948e-01,-1.314856708049774170e-01,-1.314856708049774170e-01,-1.314856708049774170e-01,-1.314856708049774170e-01,-1.309189200401306152e-01,-1.309189200401306152e-01,-1.318988353013992310e-01,-1.318988353013992310e-01,-1.318988353013992310e-01,-1.334470063447952271e-01,-1.334470063447952271e-01,-1.352338492870330811e-01,-1.417428851127624512e-01,-1.417428851127624512e-01,-1.417428851127624512e-01,-1.417431384325027466e-01,-1.417431384325027466e-01,-1.417431384325027466e-01,-1.424605697393417358e-01,-1.424605697393417358e-01,-1.424605697393417358e-01,-1.449535787105560303e-01,-1.449535787105560303e-01,-1.490774452686309814e-01,-1.490774452686309814e-01,-1.514901220798492432e-01,-1.514901220798492432e-01,-1.514901220798492432e-01,-1.561514884233474731e-01,-1.561514884233474731e-01,-1.561514884233474731e-01,-1.541588306427001953e-01,-1.541588306427001953e-01,-1.594830304384231567e-01,-1.594830304384231567e-01,-1.594830304384231567e-01,-1.618713587522506714e-01,-1.618713587522506714e-01,-1.618713587522506714e-01,-1.745849549770355225e-01,-1.815131306648254395e-01,-1.815131306648254395e-01,-1.815131306648254395e-01,-1.815131306648254395e-01,-1.839266568422317505e-01,-1.839266568422317505e-01,-1.839266568422317505e-01,-1.839266568422317505e-01,-1.737279742956161499e-01,-1.737279742956161499e-01,-1.737279742956161499e-01,-1.744103282690048218e-01,-7.787356525659561157e-02,-7.787356525659561157e-02,1.412308542057871819e-03,1.412308542057871819e-03,-1.322418153285980225e-01,-1.322418153285980225e-01,-5.230530351400375366e-02,-5.230530351400375366e-02,7.203971594572067261e-02,7.203971594572067261e-02,2.147151231765747070e-01,2.147151231765747070e-01,2.147151231765747070e-01,3.076522946357727051e-01,3.076522946357727051e-01,3.076522946357727051e-01,3.467450439929962158e-01,3.467450439929962158e-01,3.467450439929962158e-01,3.691412210464477539e-01,3.459313809871673584e-01,3.459313809871673584e-01,3.459313809871673584e-01,3.459313809871673584e-01,3.886165022850036621e-01,3.886165022850036621e-01,3.886165022850036621e-01,3.886165022850036621e-01,4.135423898696899414e-01,4.135423898696899414e-01,4.135423898696899414e-01,4.135423898696899414e-01,4.119909107685089111e-01,4.119909107685089111e-01,4.119909107685089111e-01,4.077033698558807373e-01,4.081859290599822998e-01,4.081859290599822998e-01,4.081859290599822998e-01
-1.063748523592948914e-01,-1.039000824093818665e-01,-1.001532748341560364e-01,-1.000313386321067810e-01,-1.000313386321067810e-01,-1.000313386321067810e-01,-1.006837114691734314e-01,-1.006837114691734314e-01,-1.006837114691734314e-01,-1.006837114691734314e-01,-1.043640300631523132e-01,-1.043640300631523132e-01,-1.043640300631523132e-01,-1.127644181251525879e-01,-1.127644181251525879e-01,-1.127644181251525879e-01,-1.120248064398765564e-01,-1.120248064398765564e-01,-1.091291382908821106e-01,-1.091291382908821106e-01,-1.186702921986579895e-01,-1.186702921986579895e-01,-1.124185323715209961e-01,-1.124185323715209961e-01,-1.124185323715209961e-01,-1.062082722783088684e-01,-1.062082722783088684e-01,-1.062082722783088684e-01,-1.062082722783088684e-01,-1.017689406871795654e-01,-1.017689406871795654e-01,-1.007082909345626831e-01,-1.007082909345626831e-01,-1.007082909345626831e-01,-1.052398458123207092e-01,-1.052398458123207092e-01,-1.145587861537933350e-01,-1.144901961088180542e-01,-1.144901961088180542e-01,-1.144901961088180542e-01,-1.218153014779090881e-01,-1.218153014779090881e-01,-1.218153014779090881e-01,-1.293677687644958496e-01,-1.293677687644958496e-01,-1.293677687644958496e-01,-1.374495476484298706e-01,-1.374495476484298706e-01,-1.357387602329254150e-01,-1.357387602329254150e-01,-1.433689147233963013e-01,-1.433689147233963013e-01,-1.433689147233963013e-01,-1.477818936109542847e-01,-1.477818936109542847e-01,-1.477818936109542847e-01,-1.420960426330566406e-01,-1.420960426330566406e-01,-1.472286134958267212e-01,-1.472286134958267212e-01,-1.472286134958267212e-01,-1.470487713813781738e-01,-1.470487713813781738e-01,-1.470487713813781738e-01,-1.559197753667831421e-01,-1.655331999063491821e-01,-1.655331999063491821e-01,-1.655331999063491821e-01,-1.655331999063491821e-01,-1.685539186000823975e-01,-1.685539186000823975e-01,-1.685539186000823975e-01,-1.685539186000823975e-01,-1.644368618726730347e-01,-1.644368618726730347e-01,-1.644368618726730347e-01,-1.647655963897705078e-01,-9.440506994724273682e-02,-9.440506994724273682e-02,-2.641444653272628784e-02,-2.641444653272628784e-02,-1.257606148719787598e-01,-1.257606148719787598e-01,-7.009263336658477783e-02,-7.009263336658477783e-02,2.037764713168144226e-02,2.037764713168144226e-02,1.540863513946533203e-01,1.540863513946533203e-01,1.540863513946533203e-01,2.401638776063919067e-01,2.401638776063919067e-01,2.401638776063919067e-01,2.802205085754394531e-01,2.802205085754394531e-01,2.802205085754394531e-01,3.146215975284576416e-01,2.897157967090606689e-01,2.897157967090606689e-01,2.897157967090606689e-01,2.897157967090606689e-01,3.494681119918823242e-01,3.494681119918823242e-01,3.494681119918823242e-01,3.494681119918823242e-01,3.939458429813385010e-01,3.939458429813385010e-01,3.939458429813385010e-01,3.939458429813385010e-01,3.972985744476318359e-01,3.972985744476318359e-01,3.972985744476318359e-01,3.959392011165618896e-01,3.950997292995452881e-01,3.950997292995452881e-01,3.950997292995452881e-01
-1.077612638473510742e-01,-1.044813916087150574e-01,-1.047881841659545898e-01,-1.031899601221084595e-01,-1.031899601221084595e-01,-1.031899601221084595e-01,-1.056172326207160950e-01,-1.056172326207160950e-01,-1.056172326207160950e-01,-1.056172326207160950e-01,-1.091685071587562561e-01,-1.091685071587562561e-01,-1.091685071587562561e-01,-1.155441254377365112e-01,-1.155441254377365112e-01,-1.155441254377365112e-01,-1.156421750783920288e-01,-1.156421750783920288e-01,-1.155486851930618286e-01,-1.155486851930618286e-01,-1.184846237301826477e-01,-1.184846237301826477e-01,-1.171994507312774658e-01,-1.171994507312774658e-01,-1.171994507312774658e-01,-1.152750700712203979e-01,-1.152750700712203979e-01,-1.152750700712203979e-01,-1.152750700712203979e-01,-1.105479225516319275e-01,-1.105479225516319275e-01,-1.036161184310913086e-01,-1.036161184310913086e-01,-1.036161184310913086e-01,-9.673719853162765503e-02,-9.673719853162765503e-02,-9.247248619794845581e-02,-1.041087880730628967e-01,-1.041087880730628967e-01,-1.041087880730628967e-01,-1.015010848641395569e-01,-1.015010848641395569e-01,-1.015010848641395569e-01,-1.013864055275917053e-01,-1.013864055275917053e-01,-1.013864055275917053e-01,-1.050087437033653259e-01,-1.050087437033653259e-01,-1.116115450859069824e-01,-1.116115450859069824e-01,-1.147842407226562500e-01,-1.147842407226562500e-01,-1.147842407226562500e-01,-1.202219948172569275e-01,-1.202219948172569275e-01,-1.202219948172569275e-01,-1.234807595610618591e-01,-1.234807595610618591e-01,-1.280649304389953613e-01,-1.280649304389953613e-01,-1.280649304389953613e-01,-1.331112384796142578e-01,-1.331112384796142578e-01,-1.331112384796142578e-01,-1.431555896997451782e-01,-1.551782637834548950e-01,-1.551782637834548950e-01,-1.551782637834548950e-01,-1.551782637834548950e-01,-1.620101779699325562e-01,-1.620101779699325562e-01,-1.620101779699325562e-01,-1.620101779699325562e-01,-1.528044939041137695e-01,-1.528044939041137695e-01,-1.528044939041137695e-01,-1.536045372486114502e-01,-8.221571892499923706e-02,-8.221571892499923706e-02,-2.930343523621559143e-02,-2.930343523621559143e-02,-1.266098618507385254e-01,-1.266098618507385254e-01,-7.976200431585311890e-02,-7.976200431585311890e-02,2.418192103505134583e-02,2.418192103505134583e-02,1.314660608768463135e-01,1.314660608768463135e-01,1.314660608768463135e-01,2.009788453578948975e-01,2.009788453578948975e-01,2.009788453578948975e-01,2.382258325815200806e-01,2.382258325815200806e-01,2.382258325815200806e-01,2.717403769493103027e-01,2.450158298015594482e-01,2.450158298015594482e-01,2.450158298015594482e-01,2.450158298015594482e-01,3.073035776615142822e-01,3.073035776615142822e-01,3.073035776615142822e-01,3.073035776615142822e-01,3.552032411098480225e-01,3.552032411098480225e-01,3.552032411098480225e-01,3.552032411098480225e-01,3.614070415496826172e-01,3.614070415496826172e-01,3.614070415496826172e-01,3.624376952648162842e-01,3.609755635261535645e-01,3.609755635261535645e-01,3.609755635261535645e-01
-5.211101472377777100e-02,-5.207580327987670898e-02,-5.305466428399085999e-02,-5.134345218539237976e-02,-5.134345218539237976e-02,-5.134345218539237976e-02,-5.113086849451065063e-02,-5.113086849451065063e-02,-5.113086849451065063e-02,-5.113086849451065063e-02,-5.209971219301223755e-02,-5.209971219301223755e-02,-5.209971219301223755e-02,-6.039506569504737854e-02,-6.039506569504737854e-02,-6.039506569504737854e-02,-5.818422883749008179e-02,-5.818422883749008179e-02,-5.416516214609146118e-02,-5.416516214609146118e-02,-6.228755414485931396e-02,-6.228755414485931396e-02,-5.586408451199531555e-02,-5.586408451199531555e-02,-5.586408451199531555e-02,-4.961381852626800537e-02,-4.961381852626800537e-02,-4.961381852626800537e-02,-4.961381852626800537e-02,-4.229900985956192017e-02,-4.229900985956192017e-02,-3.380318358540534973e-02,-3.380318358540534973e-02,-3.380318358540534973e-02,-2.606530115008354187e-02,-2.606530115008354187e-02,-1.950921677052974701e-02,-3.053848817944526672e-02,-3.053848817944526672e-02,-3.053848817944526672e-02,-2.258369699120521545e-02,-2.258369699120521545e-02,-2.258369699120521545e-02,-1.553242094814777374e-02,-1.553242094814777374e-02,-1.553242094814777374e-02,-1.103091612458229065e-02,-1.103091612458229065e-02,-2.504323236644268036e-02,-2.504323236644268036e-02,-2.115157246589660645e-02,-2.115157246589660645e-02,-2.115157246589660645e-02,-2.222402021288871765e-02,-2.222402021288871765e-02,-2.222402021288871765e-02,-3.518151119351387024e-02,-3.518151119351387024e-02,-3.665115684270858765e-02,-3.665115684270858765e-02,-3.665115684270858765e-02,-4.335739836096763611e-02,-4.335739836096763611e-02,-4.335739836096763611e-02,-6.503736972808837891e-02,-7.993947714567184448e-02,-7.993947714567184448e-02,-7.993947714567184448e-02,-7.993947714567184448e-02,-9.330047667026519775e-02,-9.330047667026519775e-02,-9.330047667026519775e-02,-9.330047667026519775e-02,-7.572056353092193604e-02,-7.572056353092193604e-02,-7.572056353092193604e-02,-7.476363331079483032e-02,4.998045787215232849e-02,4.998045787215232849e-02,1.025091484189033508e-01,1.025091484189033508e-01,-5.879708752036094666e-02,-5.879708752036094666e-02,1.068189367651939392e-02,1.068189367651939392e-02,1.657408624887466431e-01,1.657408624887466431e-01,2.750633955001831055e-01,2.750633955001831055e-01,2.750633955001831055e-01,3.486213684082031250e-01,3.486213684082031250e-01,3.486213684082031250e-01,3.868903219699859619e-01,3.868903219699859619e-01,3.868903219699859619e-01,4.038693606853485107e-01,3.764654099941253662e-01,3.764654099941253662e-01,3.764654099941253662e-01,3.764654099941253662e-01,3.993839621543884277e-01,3.993839621543884277e-01,3.993839621543884277e-01,3.993839621543884277e-01,4.042927622795104980e-01,4.042927622795104980e-01,4.042927622795104980e-01,4.042927622795104980e-01,4.068880677223205566e-01,4.068880677223205566e-01,4.068880677223205566e-01,4.045735001564025879e-01,4.061345160007476807e-01,4.061345160007476807e-01,4.061345160007476807e-01
-9.891769848763942719e-03,-2.419961383566260338e-03,-1.603153347969055176e-02,-1.015087310224771500e-02,-1.015087310224771500e-02,-1.015087310224771500e-02,-2.443052828311920166e-02,-2.443052828311920166e-02,-2.443052828311920166e-02,-2.443052828311920166e-02,-3.436032310128211975e-02,-3.436032310128211975e-02,-3.436032310128211975e-02,-4.999672248959541321e-02,-4.999672248959541321e-02,-4.999672248959541321e-02,-4.674044251441955566e-02,-4.674044251441955566e-02,-4.089681431651115417e-02,-4.089681431651115417e-02,-5.007969960570335388e-02,-5.007969960570335388e-02,-4.075683280825614929e-02,-4.075683280825614929e-02,-4.075683280825614929e-02,-3.230623528361320496e-02,-3.230623528361320496e-02,-3.230623528361320496e-02,-3.230623528361320496e-02,-2.330669201910495758e-02,-2.330669201910495758e-02,-1.382771972566843033e-02,-1.382771972566843033e-02,-1.382771972566843033e-02,-5.719761364161968231e-03,-5.719761364161968231e-03,-2.694760914891958237e-04,-1.118049211800098419e-02,-1.118049211800098419e-02,-1.118049211800098419e-02,-5.671688355505466461e-03,-5.671688355505466461e-03,-5.671688355505466461e-03,-8.709871326573193073e-04,-8.709871326573193073e-04,-8.709871326573193073e-04,4.107968416064977646e-03,4.107968416064977646e-03,-7.581535726785659790e-03,-7.581535726785659790e-03,-2.656999742612242699e-03,-2.656999742612242699e-03,-2.656999742612242699e-03,-1.013469416648149490e-03,-1.013469416648149490e-03,-1.013469416648149490e-03,-1.165567245334386826e-02,-1.165567245334386826e-02,-1.595724560320377350e-02,-1.595724560320377350e-02,-1.595724560320377350e-02,-2.016485482454299927e-02,-2.016485482454299927e-02,-2.016485482454299927e-02,-4.236149415373802185e-02,-6.201965361833572388e-02,-6.201965361833572388e-02,-6.201965361833572388e-02,-6.201965361833572388e-02,-8.118837326765060425e-02,-8.118837326765060425e-02,-8.118837326765060425e-02,-8.118837326765060425e-02,-5.517768859863281250e-02,-5.517768859863281250e-02,-5.517768859863281250e-02,-5.940575152635574341e-02,7.485736906528472900e-02,7.485736906528472900e-02,1.339943408966064453e-01,1.339943408966064453e-01,-5.370851978659629822e-02,-5.370851978659629822e-02,2.324779331684112549e-02,2.324779331684112549e-02,1.921378672122955322e-01,1.921378672122955322e-01,2.948543727397918701e-01,2.948543727397918701e-01,2.948543727397918701e-01,3.603773117065429688e-01,3.603773117065429688e-01,3.603773117065429688e-01,3.963088393211364746e-01,3.963088393211364746e-01,3.963088393211364746e-01,4.106960594654083252e-01,3.868301212787628174e-01,3.868301212787628174e-01,3.868301212787628174e-01,3.868301212787628174e-01,4.008001387119293213e-01,4.008001387119293213e-01,4.008001387119293213e-01,4.008001387119293213e-01,3.935100436210632324e-01,3.935100436210632324e-01,3.935100436210632324e-01,3.935100436210632324e-01,3.979499936103820801e-01,3.979499936103820801e-01,3.979499936103820801e-01,3.995224833488464355e-01,3.979313373565673828e-01,3.979313373565673828e-01,3.979313373565673828e-01
-1.261317878961563110e-01,-1.099333912134170532e-01,-1.255937069654464722e-01,-1.130084544420242310e-01,-1.130084544420242310e-01,-1.130084544420242310e-01,-1.268405467271804810e-01,-1.268405467271804810e-01,-1.268405467271804810e-01,-1.268405467271804810e-01,-1.280361860990524292e-01,-1.280361860990524292e-01,-1.280361860990524292e-01,-1.353238523006439209e-01,-1.353238523006439209e-01,-1.353238523006439209e-01,-1.287904977798461914e-01,-1.287904977798461914e-01,-1.213128864765167236e-01,-1.213128864765167236e-01,-1.293511092662811279e-01,-1.293511092662811279e-01,-1.172252371907234192e-01,-1.172252371907234192e-01,-1.172252371907234192e-01,-1.031975373625755310e-01,-1.031975373625755310e-01,-1.031975373625755310e-01,-1.031975373625755310e-01,-8.777225017547607422e-02,-8.777225017547607422e-02,-7.203765958547592163e-02,-7.203765958547592163e-02,-7.203765958547592163e-02,-5.692704021930694580e-02,-5.692704021930694580e-02,-4.388889297842979431e-02,-6.843191385269165039e-02,-6.843191385269165039e-02,-6.843191385269165039e-02,-5.455038696527481079e-02,-5.455038696527481079e-02,-5.455038696527481079e-02,-4.249363020062446594e-02,-4.249363020062446594e-02,-4.249363020062446594e-02,-3.362048044800758362e-02,-3.362048044800758362e-02,-5.667787417769432068e-02,-5.667787417769432068e-02,-4.643543064594268799e-02,-4.643543064594268799e-02,-4.643543064594268799e-02,-4.202699661254882812e-02,-4.202699661254882812e-02,-4.202699661254882812e-02,-6.527190655469894409e-02,-6.527190655469894409e-02,-6.050619855523109436e-02,-6.050619855523109436e-02,-6.050619855523109436e-02,-7.952690124511718750e-02,-7.952690124511718750e-02,-7.952690124511718750e-02,-1.010446771979331970e-01,-1.094149202108383179e-01,-1.094149202108383179e-01,-1.094149202108383179e-01,-1.094149202108383179e-01,-1.232204586267471313e-01,-1.232204586267471313e-01,-1.232204586267471313e-01,-1.232204586267471313e-01,-1.086605563759803772e-01,-1.086605563759803772e-01,-1.086605563759803772e-01,-1.092705428600311279e-01,1.428354717791080475e-02,1.428354717791080475e-02,7.138056308031082153e-02,7.138056308031082153e-02,-1.045074313879013062e-01,-1.045074313879013062e-01,-3.809858486056327820e-02,-3.809858486056327820e-02,1.250685453414916992e-01,1.250685453414916992e-01,2.394934296607971191e-01,2.394934296607971191e-01,2.394934296607971191e-01,3.137490451335906982e-01,3.137490451335906982e-01,3.137490451335906982e-01,3.541906177997589111e-01,3.541906177997589111e-01,3.541906177997589111e-01,3.714703917503356934e-01,3.409421741962432861e-01,3.409421741962432861e-01,3.409421741962432861e-01,3.409421741962432861e-01,3.655527234077453613e-01,3.655527234077453613e-01,3.655527234077453613e-01,3.655527234077453613e-01,3.598077893257141113e-01,3.598077893257141113e-01,3.598077893257141113e-01,3.598077893257141113e-01,3.598048686981201172e-01,3.598048686981201172e-01,3.598048686981201172e-01,3.604685664176940918e-01,3.608006238937377930e-01,3.608006238937377930e-01,3.608006238937377930e-01
-2.236027270555496216e-01,-2.095939218997955322e-01,-2.215525954961776733e-01,-2.103195339441299438e-01,-2.103195339441299438e-01,-2.103195339441299438e-01,-2.215656787157058716e-01,-2.215656787157058716e-01,-2.215656787157058716e-01,-2.215656787157058716e-01,-2.219659090042114258e-01,-2.219659090042114258e-01,-2.219659090042114258e-01,-2.258825004100799561e-01,-2.258825004100799561e-01,-2.258825004100799561e-01,-2.187818735837936401e-01,-2.187818735837936401e-01,-2.121421545743942261e-01,-2.121421545743942261e-01,-2.182254195213317871e-01,-2.182254195213317871e-01,-2.081698626279830933e-01,-2.081698626279830933e-01,-2.081698626279830933e-01,-1.960566788911819458e-01,-1.960566788911819458e-01,-1.960566788911819458e-01,-1.960566788911819458e-01,-1.831495165824890137e-01,-1.831495165824890137e-01,-1.676251143217086792e-01,-1.676251143217086792e-01,-1.676251143217086792e-01,-1.519395560026168823e-01,-1.519395560026168823e-01,-1.344911009073257446e-01,-1.584473252296447754e-01,-1.584473252296447754e-01,-1.584473252296447754e-01,-1.389632225036621094e-01,-1.389632225036621094e-01,-1.389632225036621094e-01,-1.228057965636253357e-01,-1.228057965636253357e-01,-1.228057965636253357e-01,-1.097905933856964111e-01,-1.097905933856964111e-01,-1.323180943727493286e-01,-1.323180943727493286e-01,-1.173816844820976257e-01,-1.173816844820976257e-01,-1.173816844820976257e-01,-1.081415563821792603e-01,-1.081415563821792603e-01,-1.081415563821792603e-01,-1.336200237274169922e-01,-1.336200237274169922e-01,-1.263288408517837524e-01,-1.263288408517837524e-01,-1.263288408517837524e-01,-1.495568156242370605e-01,-1.495568156242370605e-01,-1.495568156242370605e-01,-1.774019300937652588e-01,-1.733911186456680298e-01,-1.733911186456680298e-01,-1.733911186456680298e-01,-1.733911186456680298e-01,-1.827898323535919189e-01,-1.827898323535919189e-01,-1.827898323535919189e-01,-1.827898323535919189e-01,-1.638867259025573730e-01,-1.638867259025573730e-01,-1.638867259025573730e-01,-1.690216958522796631e-01,-2.514172531664371490e-02,-2.514172531664371490e-02,4.238473251461982727e-02,4.238473251461982727e-02,-1.667101383209228516e-01,-1.667101383209228516e-01,-9.858254343271255493e-02,-9.858254343271255493e-02,8.601021766662597656e-02,8.601021766662597656e-02,2.000360637903213501e-01,2.000360637903213501e-01,2.000360637903213501e-01,2.795619666576385498e-01,2.795619666576385498e-01,2.795619666576385498e-01,3.239809572696685791e-01,3.239809572696685791e-01,3.239809572696685791e-01,3.431670665740966797e-01,3.068706393241882324e-01,3.068706393241882324e-01,3.068706393241882324e-01,3.068706393241882324e-01,3.375683128833770752e-01,3.375683128833770752e-01,3.375683128833770752e-01,3.375683128833770752e-01,3.375518918037414551e-01,3.375518918037414551e-01,3.375518918037414551e-01,3.375518918037414551e-01,3.373862206935882568e-01,3.373862206935882568e-01,3.373862206935882568e-01,3.362146914005279541e-01,3.370290696620941162e-01,3.370290696620941162e-01,3.370290696620941162e-01
-2.036319673061370850e-01,-1.968599259853363037e-01,-2.069366127252578735e-01,-2.012931853532791138e-01,-2.012931853532791138e-01,-2.012931853532791138e-01,-2.116738110780715942e-01,-2.116738110780715942e-01,-2.116738110780715942e-01,-2.116738110780715942e-01,-2.172883003950119019e-01,-2.172883003950119019e-01,-2.172883003950119019e-01,-2.243342697620391846e-01,-2.243342697620391846e-01,-2.243342697620391846e-01,-2.193286865949630737e-01,-2.193286865949630737e-01,-2.134700119495391846e-01,-2.134700119495391846e-01,-2.188241481781005859e-01,-2.188241481781005859e-01,-2.097292989492416382e-01,-2.097292989492416382e-01,-2.097292989492416382e-01,-1.997330188751220703e-01,-1.997330188751220703e-01,-1.997330188751220703e-01,-1.997330188751220703e-01,-1.901866793632507324e-01,-1.901866793632507324e-01,-1.786461770534515381e-01,-1.786461770534515381e-01,-1.786461770534515381e-01,-1.675340682268142700e-01,-1.675340682268142700e-01,-1.569386869668960571e-01,-1.742957830429077148e-01,-1.742957830429077148e-01,-1.742957830429077148e-01,-1.605011373758316040e-01,-1.605011373758316040e-01,-1.605011373758316040e-01,-1.493282169103622437e-01,-1.493282169103622437e-01,-1.493282169103622437e-01,-1.422790288925170898e-01,-1.422790288925170898e-01,-1.576257795095443726e-01,-1.576257795095443726e-01,-1.482356488704681396e-01,-1.482356488704681396e-01,-1.482356488704681396e-01,-1.441611796617507935e-01,-1.441611796617507935e-01,-1.441611796617507935e-01,-1.603598296642303467e-01,-1.603598296642303467e-01,-1.563834995031356812e-01,-1.563834995031356812e-01,-1.563834995031356812e-01,-1.712388992309570312e-01,-1.712388992309570312e-01,-1.712388992309570312e-01,-1.888411641120910645e-01,-1.861520260572433472e-01,-1.861520260572433472e-01,-1.861520260572433472e-01,-1.861520260572433472e-01,-1.869731992483139038e-01,-1.869731992483139038e-01,-1.869731992483139038e-01,-1.869731992483139038e-01,-1.550322771072387695e-01,-1.550322771072387695e-01,-1.550322771072387695e-01,-1.639319062232971191e-01,-2.351503446698188782e-02,-2.351503446698188782e-02,6.121717393398284912e-02,6.121717393398284912e-02,-1.586768478155136108e-01,-1.586768478155136108e-01,-8.057156950235366821e-02,-8.057156950235366821e-02,1.167720779776573181e-01,1.167720779776573181e-01,2.280171811580657959e-01,2.280171811580657959e-01,2.280171811580657959e-01,3.019213974475860596e-01,3.019213974475860596e-01,3.019213974475860596e-01,3.397521078586578369e-01,3.397521078586578369e-01,3.397521078586578369e-01,3.529080152511596680e-01,3.251036405563354492e-01,3.251036405563354492e-01,3.251036405563354492e-01,3.251036405563354492e-01,3.413054943084716797e-01,3.413054943084716797e-01,3.413054943084716797e-01,3.413054943084716797e-01,3.328276872634887695e-01,3.328276872634887695e-01,3.328276872634887695e-01,3.328276872634887695e-01,3.300116360187530518e-01,3.300116360187530518e-01,3.300116360187530518e-01,3.269972503185272217e-01,3.275094628334045410e-01,3.275094628334045410e-01,3.275094628334045410e-01
-2.102233767509460449e-01,-1.999571472406387329e-01,-2.117865979671478271e-01,-2.043952643871307373e-01,-2.043952643871307373e-01,-2.043952643871307373e-01,-2.175231724977493286e-01,-2.175231724977493286e-01,-2.175231724977493286e-01,-2.175231724977493286e-01,-2.247413098812103271e-01,-2.247413098812103271e-01,-2.247413098812103271e-01,-2.350268512964248657e-01,-2.350268512964248657e-01,-2.350268512964248657e-01,-2.296825498342514038e-01,-2.296825498342514038e-01,-2.222198545932769775e-01,-2.222198545932769775e-01,-2.305094003677368164e-01,-2.305094003677368164e-01,-2.208166718482971191e-01,-2.208166718482971191e-01,-2.208166718482971191e-01,-2.109812051057815552e-01,-2.109812051057815552e-01,-2.109812051057815552e-01,-2.109812051057815552e-01,-2.028282880783081055e-01,-2.028282880783081055e-01,-1.948286890983581543e-01,-1.948286890983581543e-01,-1.948286890983581543e-01,-1.889657825231552124e-01,-1.889657825231552124e-01,-1.836128085851669312e-01,-1.935751438140869141e-01,-1.935751438140869141e-01,-1.935751438140869141e-01,-1.839396357536315918e-01,-1.839396357536315918e-01,-1.839396357536315918e-01,-1.759320944547653198e-01,-1.759320944547653198e-01,-1.759320944547653198e-01,-1.697103679180145264e-01,-1.697103679180145264e-01,-1.788284927606582642e-01,-1.788284927606582642e-01,-1.726921945810317993e-01,-1.726921945810317993e-01,-1.726921945810317993e-01,-1.702798008918762207e-01,-1.702798008918762207e-01,-1.702798008918762207e-01,-1.796875447034835815e-01,-1.796875447034835815e-01,-1.760105788707733154e-01,-1.760105788707733154e-01,-1.760105788707733154e-01,-1.856859624385833740e-01,-1.856859624385833740e-01,-1.856859624385833740e-01,-1.958053410053253174e-01,-1.974944025278091431e-01,-1.974944025278091431e-01,-1.974944025278091431e-01,-1.974944025278091431e-01,-1.918228715658187866e-01,-1.918228715658187866e-01,-1.918228715658187866e-01,-1.918228715658187866e-01,-1.637813597917556763e-01,-1.637813597917556763e-01,-1.637813597917556763e-01,-1.671363115310668945e-01,-3.824830055236816406e-02,-3.824830055236816406e-02,5.076023936271667480e-02,5.076023936271667480e-02,-1.607442945241928101e-01,-1.607442945241928101e-01,-8.139304816722869873e-02,-8.139304816722869873e-02,1.153588294982910156e-01,1.153588294982910156e-01,2.230108678340911865e-01,2.230108678340911865e-01,2.230108678340911865e-01,2.894721329212188721e-01,2.894721329212188721e-01,2.894721329212188721e-01,3.226442933082580566e-01,3.226442933082580566e-01,3.226442933082580566e-01,3.304310142993927002e-01,3.067907691001892090e-01,3.067907691001892090e-01,3.067907691001892090e-01,3.067907691001892090e-01,3.172977864742279053e-01,3.172977864742279053e-01,3.172977864742279053e-01,3.172977864742279053e-01,3.039662539958953857e-01,3.039662539958953857e-01,3.039662539958953857e-01,3.039662539958953857e-01,2.997114956378936768e-01,2.997114956378936768e-01,2.997114956378936768e-01,2.937980592250823975e-01,2.969351112842559814e-01,2.969351112842559814e-01,2.969351112842559814e-01
-1.976430565118789673e-01,-1.994636803865432739e-01,-2.038232684135437012e-01,-2.040219008922576904e-01,-2.040219008922576904e-01,-2.040219008922576904e-01,-2.089290469884872437e-01,-2.089290469884872437e-01,-2.089290469884872437e-01,-2.089290469884872437e-01,-2.142062783241271973e-01,-2.142062783241271973e-01,-2.142062783241271973e-01,-2.245014011859893799e-01,-2.245014011859893799e-01,-2.245014011859893799e-01,-2.231685966253280640e-01,-2.231685966253280640e-01,-2.191780656576156616e-01,-2.191780656576156616e-01,-2.290972173213958740e-01,-2.290972173213958740e-01,-2.223986834287643433e-01,-2.223986834287643433e-01,-2.223986834287643433e-01,-2.159592509269714355e-01,-2.159592509269714355e-01,-2.159592509269714355e-01,-2.159592509269714355e-01,-2.102701514959335327e-01,-2.102701514959335327e-01,-2.049038857221603394e-01,-2.049038857221603394e-01,-2.049038857221603394e-01,-2.008148729801177979e-01,-2.008148729801177979e-01,-1.983321607112884521e-01,-2.052849978208541870e-01,-2.052849978208541870e-01,-2.052849978208541870e-01,-2.005231678485870361e-01,-2.005231678485870361e-01,-2.005231678485870361e-01,-1.964647918939590454e-01,-1.964647918939590454e-01,-1.964647918939590454e-01,-1.934183239936828613e-01,-1.934183239936828613e-01,-1.992909908294677734e-01,-1.992909908294677734e-01,-1.958055496215820312e-01,-1.958055496215820312e-01,-1.958055496215820312e-01,-1.936831921339035034e-01,-1.936831921339035034e-01,-1.936831921339035034e-01,-2.012487351894378662e-01,-2.012487351894378662e-01,-1.995811760425567627e-01,-1.995811760425567627e-01,-1.995811760425567627e-01,-2.083247452974319458e-01,-2.083247452974319458e-01,-2.083247452974319458e-01,-2.182057052850723267e-01,-2.267964035272598267e-01,-2.267964035272598267e-01,-2.267964035272598267e-01,-2.267964035272598267e-01,-2.240999490022659302e-01,-2.240999490022659302e-01,-2.240999490022659302e-01,-2.240999490022659302e-01,-2.036047428846359253e-01,-2.036047428846359253e-01,-2.036047428846359253e-01,-2.108946591615676880e-01,-8.732442557811737061e-02,-8.732442557811737061e-02,-1.014809240587055683e-03,-1.014809240587055683e-03,-1.989068090915679932e-01,-1.989068090915679932e-01,-1.189580112695693970e-01,-1.189580112695693970e-01,6.803369522094726562e-02,6.803369522094726562e-02,2.001391500234603882e-01,2.001391500234603882e-01,2.001391500234603882e-01,2.781133949756622314e-01,2.781133949756622314e-01,2.781133949756622314e-01,3.143866956233978271e-01,3.143866956233978271e-01,3.143866956233978271e-01,3.243238627910614014e-01,3.056912422180175781e-01,3.056912422180175781e-01,3.056912422180175781e-01,3.056912422180175781e-01,3.172351717948913574e-01,3.172351717948913574e-01,3.172351717948913574e-01,3.172351717948913574e-01,3.119242489337921143e-01,3.119242489337921143e-01,3.119242489337921143e-01,3.119242489337921143e-01,3.123782873153686523e-01,3.123782873153686523e-01,3.123782873153686523e-01,3.050404191017150879e-01,3.077134788036346436e-01,3.077134788036346436e-01,3.077134788036346436e-01
-1.778619438409805298e-01,-1.756687015295028687e-01,-1.810083538293838501e-01,-1.795654147863388062e-01,-1.795654147863388062e-01,-1.795654147863388062e-01,-1.825636476278305054e-01,-1.825636476278305054e-01,-1.825636476278305054e-01,-1.825636476278305054e-01,-1.872872859239578247e-01,-1.872872859239578247e-01,-1.872872859239578247e-01,-1.996146142482757568e-01,-1.996146142482757568e-01,-1.996146142482757568e-01,-2.009238153696060181e-01,-2.009238153696060181e-01,-1.990160644054412842e-01,-1.990160644054412842e-01,-2.090823352336883545e-01,-2.090823352336883545e-01,-2.036255449056625366e-01,-2.036255449056625366e-01,-2.036255449056625366e-01,-1.986415386199951172e-01,-1.986415386199951172e-01,-1.986415386199951172e-01,-1.986415386199951172e-01,-1.950473189353942871e-01,-1.950473189353942871e-01,-1.918959319591522217e-01,-1.918959319591522217e-01,-1.918959319591522217e-01,-1.893422007560729980e-01,-1.893422007560729980e-01,-1.866359561681747437e-01,-1.937881410121917725e-01,-1.937881410121917725e-01,-1.937881410121917725e-01,-1.894387602806091309e-01,-1.894387602806091309e-01,-1.894387602806091309e-01,-1.856173872947692871e-01,-1.856173872947692871e-01,-1.856173872947692871e-01,-1.829102337360382080e-01,-1.829102337360382080e-01,-1.897439360618591309e-01,-1.897439360618591309e-01,-1.862680166959762573e-01,-1.862680166959762573e-01,-1.862680166959762573e-01,-1.845368891954421997e-01,-1.845368891954421997e-01,-1.845368891954421997e-01,-1.934018731117248535e-01,-1.934018731117248535e-01,-1.914782226085662842e-01,-1.914782226085662842e-01,-1.914782226085662842e-01,-2.002756148576736450e-01,-2.002756148576736450e-01,-2.002756148576736450e-01,-2.111399471759796143e-01,-2.200443893671035767e-01,-2.200443893671035767e-01,-2.200443893671035767e-01,-2.200443893671035767e-01,-2.202664017677307129e-01,-2.202664017677307129e-01,-2.202664017677307129e-01,-2.202664017677307129e-01,-1.983478069305419922e-01,-1.983478069305419922e-01,-1.983478069305419922e-01,-2.017125189304351807e-01,-7.284430414438247681e-02,-7.284430414438247681e-02,1.304432284086942673e-02,1.304432284086942673e-02,-1.873438209295272827e-01,-1.873438209295272827e-01,-1.034631207585334778e-01,-1.034631207585334778e-01,9.104663133621215820e-02,9.104663133621215820e-02,2.224260717630386353e-01,2.224260717630386353e-01,2.224260717630386353e-01,3.035129606723785400e-01,3.035129606723785400e-01,3.035129606723785400e-01,3.429383337497711182e-01,3.429383337497711182e-01,3.429383337497711182e-01,3.506828844547271729e-01,3.312943279743194580e-01,3.312943279743194580e-01,3.312943279743194580e-01,3.312943279743194580e-01,3.466321229934692383e-01,3.466321229934692383e-01,3.466321229934692383e-01,3.466321229934692383e-01,3.366584777832031250e-01,3.366584777832031250e-01,3.366584777832031250e-01,3.366584777832031250e-01,3.267742991447448730e-01,3.267742991447448730e-01,3.267742991447448730e-01,3.136049211025238037e-01,3.182781040668487549e-01,3.182781040668487549e-01,3.182781040668487549e-01
-1.372843384742736816e-01,-1.401410400867462158e-01,-1.452474892139434814e-01,-1.480857729911804199e-01,-1.480857729911804199e-01,-1.480857729911804199e-01,-1.509294658899307251e-01,-1.509294658899307251e-01,-1.509294658899307251e-01,-1.509294658899307251e-01,-1.538577377796173096e-01,-1.538577377796173096e-01,-1.538577377796173096e-01,-1.593775302171707153e-01,-1.593775302171707153e-01,-1.593775302171707153e-01,-1.590875387191772461e-01,-1.590875387191772461e-01,-1.585654169321060181e-01,-1.585654169321060181e-01,-1.631144881248474121e-01,-1.631144881248474121e-01,-1.614677459001541138e-01,-1.614677459001541138e-01,-1.614677459001541138e-01,-1.614442616701126099e-01,-1.614442616701126099e-01,-1.614442616701126099e-01,-1.614442616701126099e-01,-1.616329848766326904e-01,-1.616329848766326904e-01,-1.617713719606399536e-01,-1.617713719606399536e-01,-1.617713719606399536e-01,-1.621150821447372437e-01,-1.621150821447372437e-01,-1.624438315629959106e-01,-1.627729982137680054e-01,-1.627729982137680054e-01,-1.627729982137680054e-01,-1.628631949424743652e-01,-1.628631949424743652e-01,-1.628631949424743652e-01,-1.629280596971511841e-01,-1.629280596971511841e-01,-1.629280596971511841e-01,-1.628950834274291992e-01,-1.628950834274291992e-01,-1.643563061952590942e-01,-1.643563061952590942e-01,-1.646043062210083008e-01,-1.646043062210083008e-01,-1.646043062210083008e-01,-1.664891988039016724e-01,-1.664891988039016724e-01,-1.664891988039016724e-01,-1.678821742534637451e-01,-1.678821742534637451e-01,-1.724289804697036743e-01,-1.724289804697036743e-01,-1.724289804697036743e-01,-1.771739274263381958e-01,-1.771739274263381958e-01,-1.771739274263381958e-01,-1.853291243314743042e-01,-1.946159005165100098e-01,-1.946159005165100098e-01,-1.946159005165100098e-01,-1.946159005165100098e-01,-1.906032860279083252e-01,-1.906032860279083252e-01,-1.906032860279083252e-01,-1.906032860279083252e-01,-1.746487915515899658e-01,-1.746487915515899658e-01,-1.746487915515899658e-01,-1.777604520320892334e-01,-5.240355432033538818e-02,-5.240355432033538818e-02,2.899145707488059998e-02,2.899145707488059998e-02,-1.512707471847534180e-01,-1.512707471847534180e-01,-6.282333284616470337e-02,-6.282333284616470337e-02,1.081208139657974243e-01,1.081208139657974243e-01,2.408878952264785767e-01,2.408878952264785767e-01,2.408878952264785767e-01,3.155213594436645508e-01,3.155213594436645508e-01,3.155213594436645508e-01,3.474231958389282227e-01,3.474231958389282227e-01,3.474231958389282227e-01,3.576570749282836914e-01,3.422093987464904785e-01,3.422093987464904785e-01,3.422093987464904785e-01,3.422093987464904785e-01,3.601498007774353027e-01,3.601498007774353027e-01,3.601498007774353027e-01,3.601498007774353027e-01,3.554361760616302490e-01,3.554361760616302490e-01,3.554361760616302490e-01,3.554361760616302490e-01,3.446133136749267578e-01,3.446133136749267578e-01,3.446133136749267578e-01,3.352510929107666016e-01,3.346039652824401855e-01,3.346039652824401855e-01,3.346039652824401855e-01
-7.306780666112899780e-02,-6.689552217721939087e-02,-7.964743673801422119e-02,-7.840080559253692627e-02,-7.840080559253692627e-02,-7.840080559253692627e-02,-9.115517139434814453e-02,-9.115517139434814453e-02,-9.115517139434814453e-02,-9.115517139434814453e-02,-1.042282134294509888e-01,-1.042282134294509888e-01,-1.042282134294509888e-01,-1.158915534615516663e-01,-1.158915534615516663e-01,-1.158915534615516663e-01,-1.174357831478118896e-01,-1.174357831478118896e-01,-1.190030276775360107e-01,-1.190030276775360107e-01,-1.268931031227111816e-01,-1.268931031227111816e-01,-1.272310018539428711e-01,-1.272310018539428711e-01,-1.272310018539428711e-01,-1.281387656927108765e-01,-1.281387656927108765e-01,-1.281387656927108765e-01,-1.281387656927108765e-01,-1.300906687974929810e-01,-1.300906687974929810e-01,-1.326419711112976074e-01,-1.326419711112976074e-01,-1.326419711112976074e-01,-1.354068666696548462e-01,-1.354068666696548462e-01,-1.376894712448120117e-01,-1.354475617408752441e-01,-1.354475617408752441e-01,-1.354475617408752441e-01,-1.363683938980102539e-01,-1.363683938980102539e-01,-1.363683938980102539e-01,-1.365402638912200928e-01,-1.365402638912200928e-01,-1.365402638912200928e-01,-1.368975639343261719e-01,-1.368975639343261719e-01,-1.350362598896026611e-01,-1.350362598896026611e-01,-1.353393793106079102e-01,-1.353393793106079102e-01,-1.353393793106079102e-01,-1.359652280807495117e-01,-1.359652280807495117e-01,-1.359652280807495117e-01,-1.343089789152145386e-01,-1.343089789152145386e-01,-1.390787512063980103e-01,-1.390787512063980103e-01,-1.390787512063980103e-01,-1.407216191291809082e-01,-1.407216191291809082e-01,-1.407216191291809082e-01,-1.508749574422836304e-01,-1.592979878187179565e-01,-1.592979878187179565e-01,-1.592979878187179565e-01,-1.592979878187179565e-01,-1.613552421331405640e-01,-1.613552421331405640e-01,-1.613552421331405640e-01,-1.613552421331405640e-01,-1.528460532426834106e-01,-1.528460532426834106e-01,-1.528460532426834106e-01,-1.565665006637573242e-01,-6.510829180479049683e-02,-6.510829180479049683e-02,6.683394778519868851e-03,6.683394778519868851e-03,-1.188287809491157532e-01,-1.188287809491157532e-01,-4.545247927308082581e-02,-4.545247927308082581e-02,7.204827666282653809e-02,7.204827666282653809e-02,2.043735384941101074e-01,2.043735384941101074e-01,2.043735384941101074e-01,2.883549928665161133e-01,2.883549928665161133e-01,2.883549928665161133e-01,3.230168223381042480e-01,3.230168223381042480e-01,3.230168223381042480e-01,3.454448282718658447e-01,3.233681619167327881e-01,3.233681619167327881e-01,3.233681619167327881e-01,3.233681619167327881e-01,3.598633110523223877e-01,3.598633110523223877e-01,3.598633110523223877e-01,3.598633110523223877e-01,3.782600760459899902e-01,3.782600760459899902e-01,3.782600760459899902e-01,3.782600760459899902e-01,3.740499317646026611e-01,3.740499317646026611e-01,3.740499317646026611e-01,3.669914603233337402e-01,3.664665520191192627e-01,3.664665520191192627e-01,3.664665520191192627e-01
-4.944140464067459106e-02,-4.458913952112197876e-02,-5.333252623677253723e-02,-5.246232077479362488e-02,-5.246232077479362488e-02,-5.246232077479362488e-02,-6.258739531040191650e-02,-6.258739531040191650e-02,-6.258739531040191650e-02,-6.258739531040191650e-02,-7.326378673315048218e-02,-7.326378673315048218e-02,-7.326378673315048218e-02,-8.503530919551849365e-02,-8.503530919551849365e-02,-8.503530919551849365e-02,-9.139064699411392212e-02,-9.139064699411392212e-02,-9.919559210538864136e-02,-9.919559210538864136e-02,-1.083377450704574585e-01,-1.083377450704574585e-01,-1.171512082219123840e-01,-1.171512082219123840e-01,-1.171512082219123840e-01,-1.257906407117843628e-01,-1.257906407117843628e-01,-1.257906407117843628e-01,-1.257906407117843628e-01,-1.336495727300643921e-01,-1.336495727300643921e-01,-1.407130509614944458e-01,-1.407130509614944458e-01,-1.407130509614944458e-01,-1.464037150144577026e-01,-1.464037150144577026e-01,-1.505427211523056030e-01,-1.470918059349060059e-01,-1.470918059349060059e-01,-1.470918059349060059e-01,-1.500996053218841553e-01,-1.500996053218841553e-01,-1.500996053218841553e-01,-1.516006141901016235e-01,-1.516006141901016235e-01,-1.516006141901016235e-01,-1.523429006338119507e-01,-1.523429006338119507e-01,-1.487856209278106689e-01,-1.487856209278106689e-01,-1.491048783063888550e-01,-1.491048783063888550e-01,-1.491048783063888550e-01,-1.507949084043502808e-01,-1.507949084043502808e-01,-1.507949084043502808e-01,-1.469036340713500977e-01,-1.469036340713500977e-01,-1.540651470422744751e-01,-1.540651470422744751e-01,-1.540651470422744751e-01,-1.540757864713668823e-01,-1.540757864713668823e-01,-1.540757864713668823e-01,-1.601918488740921021e-01,-1.670064777135848999e-01,-1.670064777135848999e-01,-1.670064777135848999e-01,-1.670064777135848999e-01,-1.675657778978347778e-01,-1.675657778978347778e-01,-1.675657778978347778e-01,-1.675657778978347778e-01,-1.625952124595642090e-01,-1.625952124595642090e-01,-1.625952124595642090e-01,-1.612071543931961060e-01,-9.098405390977859497e-02,-9.098405390977859497e-02,-2.949218079447746277e-02,-2.949218079447746277e-02,-1.230093464255332947e-01,-1.230093464255332947e-01,-7.788483798503875732e-02,-7.788483798503875732e-02,2.151246741414070129e-02,2.151246741414070129e-02,1.456023901700973511e-01,1.456023901700973511e-01,1.456023901700973511e-01,2.201774567365646362e-01,2.201774567365646362e-01,2.201774567365646362e-01,2.609130442142486572e-01,2.609130442142486572e-01,2.609130442142486572e-01,3.026452958583831787e-01,2.783035337924957275e-01,2.783035337924957275e-01,2.783035337924957275e-01,2.783035337924957275e-01,3.532608151435852051e-01,3.532608151435852051e-01,3.532608151435852051e-01,3.532608151435852051e-01,4.079906940460205078e-01,4.079906940460205078e-01,4.079906940460205078e-01,4.079906940460205078e-01,4.127718508243560791e-01,4.127718508243560791e-01,4.127718508243560791e-01,4.069202840328216553e-01,4.078722000122070312e-01,4.078722000122070312e-01,4.078722000122070312e-01
-6.213663611561059952e-03,-4.815621301531791687e-03,-1.378432381898164749e-02,-1.632184535264968872e-02,-1.632184535264968872e-02,-1.632184535264968872e-02,-2.477835863828659058e-02,-2.477835863828659058e-02,-2.477835863828659058e-02,-2.477835863828659058e-02,-3.542519733309745789e-02,-3.542519733309745789e-02,-3.542519733309745789e-02,-5.088742822408676147e-02,-5.088742822408676147e-02,-5.088742822408676147e-02,-5.753410235047340393e-02,-5.753410235047340393e-02,-6.224946305155754089e-02,-6.224946305155754089e-02,-7.400321215391159058e-02,-7.400321215391159058e-02,-7.620353996753692627e-02,-7.620353996753692627e-02,-7.620353996753692627e-02,-8.116079121828079224e-02,-8.116079121828079224e-02,-8.116079121828079224e-02,-8.116079121828079224e-02,-8.899185061454772949e-02,-8.899185061454772949e-02,-9.726989269256591797e-02,-9.726989269256591797e-02,-9.726989269256591797e-02,-1.060512810945510864e-01,-1.060512810945510864e-01,-1.166145429015159607e-01,-1.121978610754013062e-01,-1.121978610754013062e-01,-1.121978610754013062e-01,-1.220361143350601196e-01,-1.220361143350601196e-01,-1.220361143350601196e-01,-1.322878450155258179e-01,-1.322878450155258179e-01,-1.322878450155258179e-01,-1.374414712190628052e-01,-1.374414712190628052e-01,-1.330278217792510986e-01,-1.330278217792510986e-01,-1.333672702312469482e-01,-1.333672702312469482e-01,-1.333672702312469482e-01,-1.290700286626815796e-01,-1.290700286626815796e-01,-1.290700286626815796e-01,-1.323254704475402832e-01,-1.323254704475402832e-01,-1.334844380617141724e-01,-1.334844380617141724e-01,-1.334844380617141724e-01,-1.390243619680404663e-01,-1.390243619680404663e-01,-1.390243619680404663e-01,-1.469117999076843262e-01,-1.499000191688537598e-01,-1.499000191688537598e-01,-1.499000191688537598e-01,-1.499000191688537598e-01,-1.461215615272521973e-01,-1.461215615272521973e-01,-1.461215615272521973e-01,-1.461215615272521973e-01,-1.353386640548706055e-01,-1.353386640548706055e-01,-1.353386640548706055e-01,-1.332476735115051270e-01,-2.105179242789745331e-02,-2.105179242789745331e-02,3.782023116946220398e-02,3.782023116946220398e-02,-9.521623700857162476e-02,-9.521623700857162476e-02,-2.498785220086574554e-02,-2.498785220086574554e-02,9.658366441726684570e-02,9.658366441726684570e-02,2.045669406652450562e-01,2.045669406652450562e-01,2.045669406652450562e-01,2.761803567409515381e-01,2.761803567409515381e-01,2.761803567409515381e-01,3.117610812187194824e-01,3.117610812187194824e-01,3.117610812187194824e-01,3.455854356288909912e-01,3.171375393867492676e-01,3.171375393867492676e-01,3.171375393867492676e-01,3.171375393867492676e-01,3.757371902465820312e-01,3.757371902465820312e-01,3.757371902465820312e-01,3.757371902465820312e-01,4.106503129005432129e-01,4.106503129005432129e-01,4.106503129005432129e-01,4.106503129005432129e-01,4.106618165969848633e-01,4.106618165969848633e-01,4.106618165969848633e-01,4.060965180397033691e-01,4.025011360645294189e-01,4.025011360645294189e-01,4.025011360645294189e-01
-2.641120180487632751e-02,-2.049941942095756531e-02,-2.986783534288406372e-02,-2.419975586235523224e-02,-2.419975586235523224e-02,-2.419975586235523224e-02,-3.303933143615722656e-02,-3.303933143615722656e-02,-3.303933143615722656e-02,-3.303933143615722656e-02,-3.572330996394157410e-02,-3.572330996394157410e-02,-3.572330996394157410e-02,-4.352213814854621887e-02,-4.352213814854621887e-02,-4.352213814854621887e-02,-3.935680165886878967e-02,-3.935680165886878967e-02,-3.621118143200874329e-02,-3.621118143200874329e-02,-4.552975296974182129e-02,-4.552975296974182129e-02,-3.846248611807823181e-02,-3.846248611807823181e-02,-3.846248611807823181e-02,-2.993512526154518127e-02,-2.993512526154518127e-02,-2.993512526154518127e-02,-2.993512526154518127e-02,-1.823976263403892517e-02,-1.823976263403892517e-02,-6.557377986609935760e-03,-6.557377986609935760e-03,-6.557377986609935760e-03,2.520321402698755264e-03,2.520321402698755264e-03,4.177324939519166946e-03,-1.386989187449216843e-02,-1.386989187449216843e-02,-1.386989187449216843e-02,-1.182994153350591660e-02,-1.182994153350591660e-02,-1.182994153350591660e-02,-1.423013862222433090e-02,-1.423013862222433090e-02,-1.423013862222433090e-02,-2.190113440155982971e-02,-2.190113440155982971e-02,-2.286465838551521301e-02,-2.286465838551521301e-02,-2.781158126890659332e-02,-2.781158126890659332e-02,-2.781158126890659332e-02,-3.695295751094818115e-02,-3.695295751094818115e-02,-3.695295751094818115e-02,-4.095648229122161865e-02,-4.095648229122161865e-02,-4.899424314498901367e-02,-4.899424314498901367e-02,-4.899424314498901367e-02,-5.024527758359909058e-02,-5.024527758359909058e-02,-5.024527758359909058e-02,-6.209095939993858337e-02,-7.926242053508758545e-02,-7.926242053508758545e-02,-7.926242053508758545e-02,-7.926242053508758545e-02,-8.613384515047073364e-02,-8.613384515047073364e-02,-8.613384515047073364e-02,-8.613384515047073364e-02,-6.948968768119812012e-02,-6.948968768119812012e-02,-6.948968768119812012e-02,-7.093491405248641968e-02,6.807199865579605103e-02,6.807199865579605103e-02,1.235690191388130188e-01,1.235690191388130188e-01,-4.610532894730567932e-02,-4.610532894730567932e-02,3.275423124432563782e-02,3.275423124432563782e-02,1.871962249279022217e-01,1.871962249279022217e-01,3.005093336105346680e-01,3.005093336105346680e-01,3.005093336105346680e-01,3.736780881881713867e-01,3.736780881881713867e-01,3.736780881881713867e-01,4.124498367309570312e-01,4.124498367309570312e-01,4.124498367309570312e-01,4.262953996658325195e-01,3.961693346500396729e-01,3.961693346500396729e-01,3.961693346500396729e-01,3.961693346500396729e-01,4.120941460132598877e-01,4.120941460132598877e-01,4.120941460132598877e-01,4.120941460132598877e-01,4.055844843387603760e-01,4.055844843387603760e-01,4.055844843387603760e-01,4.055844843387603760e-01,4.047922194004058838e-01,4.047922194004058838e-01,4.047922194004058838e-01,3.970837295055389404e-01,3.965346813201904297e-01,3.965346813201904297e-01,3.965346813201904297e-01
-3.354968875646591187e-02,-1.991978287696838379e-02,-3.679610788822174072e-02,-2.572439238429069519e-02,-2.572439238429069519e-02,-2.572439238429069519e-02,-4.189771786332130432e-02,-4.189771786332130432e-02,-4.189771786332130432e-02,-4.189771786332130432e-02,-4.492823034524917603e-02,-4.492823034524917603e-02,-4.492823034524917603e-02,-4.926200583577156067e-02,-4.926200583577156067e-02,-4.926200583577156067e-02,-4.605002328753471375e-02,-4.605002328753471375e-02,-4.170191287994384766e-02,-4.170191287994384766e-02,-4.691826552152633667e-02,-4.691826552152633667e-02,-4.076842963695526123e-02,-4.076842963695526123e-02,-4.076842963695526123e-02,-3.253644704818725586e-02,-3.253644704818725586e-02,-3.253644704818725586e-02,-3.253644704818725586e-02,-2.330935187637805939e-02,-2.330935187637805939e-02,-1.341115776449441910e-02,-1.341115776449441910e-02,-1.341115776449441910e-02,-3.841437166556715965e-03,-3.841437166556715965e-03,6.329670548439025879e-03,-1.486084703356027603e-02,-1.486084703356027603e-02,-1.486084703356027603e-02,-5.389460828155279160e-03,-5.389460828155279160e-03,-5.389460828155279160e-03,3.088880097493529320e-03,3.088880097493529320e-03,3.088880097493529320e-03,9.368957020342350006e-03,9.368957020342350006e-03,-1.092950254678726196e-02,-1.092950254678726196e-02,-5.406663287431001663e-03,-5.406663287431001663e-03,-5.406663287431001663e-03,-5.814369767904281616e-03,-5.814369767904281616e-03,-5.814369767904281616e-03,-2.100082486867904663e-02,-2.100082486867904663e-02,-2.004023827612400055e-02,-2.004023827612400055e-02,-2.004023827612400055e-02,-2.876670658588409424e-02,-2.876670658588409424e-02,-2.876670658588409424e-02,-4.312676936388015747e-02,-5.848880112171173096e-02,-5.848880112171173096e-02,-5.848880112171173096e-02,-5.848880112171173096e-02,-6.919967383146286011e-02,-6.919967383146286011e-02,-6.919967383146286011e-02,-6.919967383146286011e-02,-5.586777254939079285e-02,-5.586777254939079285e-02,-5.586777254939079285e-02,-5.449812486767768860e-02,6.754115968942642212e-02,6.754115968942642212e-02,1.283790022134780884e-01,1.283790022134780884e-01,-3.868006542325019836e-02,-3.868006542325019836e-02,4.075213894248008728e-02,4.075213894248008728e-02,1.972098946571350098e-01,1.972098946571350098e-01,3.184762299060821533e-01,3.184762299060821533e-01,3.184762299060821533e-01,3.929525613784790039e-01,3.929525613784790039e-01,3.929525613784790039e-01,4.307005405426025391e-01,4.307005405426025391e-01,4.307005405426025391e-01,4.465760588645935059e-01,4.189726412296295166e-01,4.189726412296295166e-01,4.189726412296295166e-01,4.189726412296295166e-01,4.424979388713836670e-01,4.424979388713836670e-01,4.424979388713836670e-01,4.424979388713836670e-01,4.453411400318145752e-01,4.453411400318145752e-01,4.453411400318145752e-01,4.453411400318145752e-01,4.558788239955902100e-01,4.558788239955902100e-01,4.558788239955902100e-01,4.612729847431182861e-01,4.596272110939025879e-01,4.596272110939025879e-01,4.596272110939025879e-01
-2.823911234736442566e-02,-2.129115164279937744e-02,-2.705517970025539398e-02,-2.043612487614154816e-02,-2.043612487614154816e-02,-2.043612487614154816e-02,-2.842547558248043060e-02,-2.842547558248043060e-02,-2.842547558248043060e-02,-2.842547558248043060e-02,-3.261702880263328552e-02,-3.261702880263328552e-02,-3.261702880263328552e-02,-4.104645922780036926e-02,-4.104645922780036926e-02,-4.104645922780036926e-02,-4.018479958176612854e-02,-4.018479958176612854e-02,-3.705685585737228394e-02,-3.705685585737228394e-02,-4.402319714426994324e-02,-4.402319714426994324e-02,-3.650060668587684631e-02,-3.650060668587684631e-02,-3.650060668587684631e-02,-2.826925925910472870e-02,-2.826925925910472870e-02,-2.826925925910472870e-02,-2.826925925910472870e-02,-1.993614248931407928e-02,-1.993614248931407928e-02,-1.132620219141244888e-02,-1.132620219141244888e-02,-1.132620219141244888e-02,-2.978108357638120651e-03,-2.978108357638120651e-03,3.998120315372943878e-03,-1.148632541298866272e-02,-1.148632541298866272e-02,-1.148632541298866272e-02,-4.542142152786254883e-03,-4.542142152786254883e-03,-4.542142152786254883e-03,-8.816455374471843243e-04,-8.816455374471843243e-04,-8.816455374471843243e-04,4.139692755416035652e-04,4.139692755416035652e-04,-1.305983681231737137e-02,-1.305983681231737137e-02,-1.140257436782121658e-02,-1.140257436782121658e-02,-1.140257436782121658e-02,-1.721048541367053986e-02,-1.721048541367053986e-02,-1.721048541367053986e-02,-2.655275911092758179e-02,-2.655275911092758179e-02,-3.094883076846599579e-02,-3.094883076846599579e-02,-3.094883076846599579e-02,-4.042990133166313171e-02,-4.042990133166313171e-02,-4.042990133166313171e-02,-5.849299952387809753e-02,-7.682576030492782593e-02,-7.682576030492782593e-02,-7.682576030492782593e-02,-7.682576030492782593e-02,-8.528093248605728149e-02,-8.528093248605728149e-02,-8.528093248605728149e-02,-8.528093248605728149e-02,-6.945999711751937866e-02,-6.945999711751937866e-02,-6.945999711751937866e-02,-6.904552131891250610e-02,5.292119458317756653e-02,5.292119458317756653e-02,1.109841912984848022e-01,1.109841912984848022e-01,-5.252186208963394165e-02,-5.252186208963394165e-02,2.819659747183322906e-02,2.819659747183322906e-02,1.805325299501419067e-01,1.805325299501419067e-01,2.985165119171142578e-01,2.985165119171142578e-01,2.985165119171142578e-01,3.687105476856231689e-01,3.687105476856231689e-01,3.687105476856231689e-01,4.056882262229919434e-01,4.056882262229919434e-01,4.056882262229919434e-01,4.212321341037750244e-01,3.948331475257873535e-01,3.948331475257873535e-01,3.948331475257873535e-01,3.948331475257873535e-01,4.199585020542144775e-01,4.199585020542144775e-01,4.199585020542144775e-01,4.199585020542144775e-01,4.229713678359985352e-01,4.229713678359985352e-01,4.229713678359985352e-01,4.229713678359985352e-01,4.301091730594635010e-01,4.301091730594635010e-01,4.301091730594635010e-01,4.344450831413269043e-01,4.328270554542541504e-01,4.328270554542541504e-01,4.328270554542541504e-01
-1.218126341700553894e-01,-1.140568777918815613e-01,-1.243041083216667175e-01,-1.163252070546150208e-01,-1.163252070546150208e-01,-1.163252070546150208e-01,-1.249068379402160645e-01,-1.249068379402160645e-01,-1.249068379402160645e-01,-1.249068379402160645e-01,-1.244721710681915283e-01,-1.244721710681915283e-01,-1.244721710681915283e-01,-1.304959952831268311e-01,-1.304959952831268311e-01,-1.304959952831268311e-01,-1.254630237817764282e-01,-1.254630237817764282e-01,-1.207486912608146667e-01,-1.207486912608146667e-01,-1.284347176551818848e-01,-1.284347176551818848e-01,-1.190694868564605713e-01,-1.190694868564605713e-01,-1.190694868564605713e-01,-1.091988086700439453e-01,-1.091988086700439453e-01,-1.091988086700439453e-01,-1.091988086700439453e-01,-9.784594178199768066e-02,-9.784594178199768066e-02,-8.628470450639724731e-02,-8.628470450639724731e-02,-8.628470450639724731e-02,-7.350033521652221680e-02,-7.350033521652221680e-02,-6.081325560808181763e-02,-7.980237156152725220e-02,-7.980237156152725220e-02,-7.980237156152725220e-02,-6.574048101902008057e-02,-6.574048101902008057e-02,-6.574048101902008057e-02,-5.270519852638244629e-02,-5.270519852638244629e-02,-5.270519852638244629e-02,-4.183539003133773804e-02,-4.183539003133773804e-02,-6.104203313589096069e-02,-6.104203313589096069e-02,-4.942851886153221130e-02,-4.942851886153221130e-02,-4.942851886153221130e-02,-4.409448802471160889e-02,-4.409448802471160889e-02,-4.409448802471160889e-02,-6.512856483459472656e-02,-6.512856483459472656e-02,-5.990009382367134094e-02,-5.990009382367134094e-02,-5.990009382367134094e-02,-7.833956927061080933e-02,-7.833956927061080933e-02,-7.833956927061080933e-02,-1.005514487624168396e-01,-1.086166203022003174e-01,-1.086166203022003174e-01,-1.086166203022003174e-01,-1.086166203022003174e-01,-1.231541633605957031e-01,-1.231541633605957031e-01,-1.231541633605957031e-01,-1.231541633605957031e-01,-1.080456748604774475e-01,-1.080456748604774475e-01,-1.080456748604774475e-01,-1.105857342481613159e-01,2.683782204985618591e-02,2.683782204985618591e-02,9.200840443372726440e-02,9.200840443372726440e-02,-1.059943884611129761e-01,-1.059943884611129761e-01,-2.932747267186641693e-02,-2.932747267186641693e-02,1.466413587331771851e-01,1.466413587331771851e-01,2.742215096950531006e-01,2.742215096950531006e-01,2.742215096950531006e-01,3.575883805751800537e-01,3.575883805751800537e-01,3.575883805751800537e-01,4.025750458240509033e-01,4.025750458240509033e-01,4.025750458240509033e-01,4.212021827697753906e-01,3.901140689849853516e-01,3.901140689849853516e-01,3.901140689849853516e-01,3.901140689849853516e-01,4.152916371822357178e-01,4.152916371822357178e-01,4.152916371822357178e-01,4.152916371822357178e-01,4.081095159053802490e-01,4.081095159053802490e-01,4.081095159053802490e-01,4.081095159053802490e-01,4.061757922172546387e-01,4.061757922172546387e-01,4.061757922172546387e-01,4.007104039192199707e-01,4.024932682514190674e-01,4.024932682514190674e-01,4.024932682514190674e-01
-1.574713736772537231e-01,-1.447579264640808105e-01,-1.618102192878723145e-01,-1.545931696891784668e-01,-1.545931696891784668e-01,-1.545931696891784668e-01,-1.689415872097015381e-01,-1.689415872097015381e-01,-1.689415872097015381e-01,-1.689415872097015381e-01,-1.734590977430343628e-01,-1.734590977430343628e-01,-1.734590977430343628e-01,-1.780683547258377075e-01,-1.780683547258377075e-01,-1.780683547258377075e-01,-1.739490181207656860e-01,-1.739490181207656860e-01,-1.691007614135742188e-01,-1.691007614135742188e-01,-1.747459769248962402e-01,-1.747459769248962402e-01,-1.672279089689254761e-01,-1.672279089689254761e-01,-1.672279089689254761e-01,-1.604617685079574585e-01,-1.604617685079574585e-01,-1.604617685079574585e-01,-1.604617685079574585e-01,-1.531639546155929565e-01,-1.531639546155929565e-01,-1.442362070083618164e-01,-1.442362070083618164e-01,-1.442362070083618164e-01,-1.350566744804382324e-01,-1.350566744804382324e-01,-1.251958310604095459e-01,-1.383340656757354736e-01,-1.383340656757354736e-01,-1.383340656757354736e-01,-1.271627396345138550e-01,-1.271627396345138550e-01,-1.271627396345138550e-01,-1.175576597452163696e-01,-1.175576597452163696e-01,-1.175576597452163696e-01,-1.093981415033340454e-01,-1.093981415033340454e-01,-1.217369064688682556e-01,-1.217369064688682556e-01,-1.131015196442604065e-01,-1.131015196442604065e-01,-1.131015196442604065e-01,-1.095803156495094299e-01,-1.095803156495094299e-01,-1.095803156495094299e-01,-1.246166229248046875e-01,-1.246166229248046875e-01,-1.214009076356887817e-01,-1.214009076356887817e-01,-1.214009076356887817e-01,-1.337366998195648193e-01,-1.337366998195648193e-01,-1.337366998195648193e-01,-1.463685631752014160e-01,-1.496027261018753052e-01,-1.496027261018753052e-01,-1.496027261018753052e-01,-1.496027261018753052e-01,-1.556079536676406860e-01,-1.556079536676406860e-01,-1.556079536676406860e-01,-1.556079536676406860e-01,-1.379650086164474487e-01,-1.379650086164474487e-01,-1.379650086164474487e-01,-1.440623998641967773e-01,-2.285973727703094482e-02,-2.285973727703094482e-02,4.742935672402381897e-02,4.742935672402381897e-02,-1.463778465986251831e-01,-1.463778465986251831e-01,-7.198426127433776855e-02,-7.198426127433776855e-02,1.025326400995254517e-01,1.025326400995254517e-01,2.258044034242630005e-01,2.258044034242630005e-01,2.258044034242630005e-01,3.050330579280853271e-01,3.050330579280853271e-01,3.050330579280853271e-01,3.476869761943817139e-01,3.476869761943817139e-01,3.476869761943817139e-01,3.648212850093841553e-01,3.379121422767639160e-01,3.379121422767639160e-01,3.379121422767639160e-01,3.379121422767639160e-01,3.663532137870788574e-01,3.663532137870788574e-01,3.663532137870788574e-01,3.663532137870788574e-01,3.672571182250976562e-01,3.672571182250976562e-01,3.672571182250976562e-01,3.672571182250976562e-01,3.675973415374755859e-01,3.675973415374755859e-01,3.675973415374755859e-01,3.670071661472320557e-01,3.679446876049041748e-01,3.679446876049041748e-01,3.679446876049041748e-01
-2.386062145233154297e-01,-2.274401336908340454e-01,-2.427134215831756592e-01,-2.340532392263412476e-01,-2.340532392263412476e-01,-2.340532392263412476e-01,-2.481306344270706177e-01,-2.481306344270706177e-01,-2.481306344270706177e-01,-2.481306344270706177e-01,-2.540577352046966553e-01,-2.540577352046966553e-01,-2.540577352046966553e-01,-2.636844217777252197e-01,-2.636844217777252197e-01,-2.636844217777252197e-01,-2.579105794429779053e-01,-2.579105794429779053e-01,-2.502717375755310059e-01,-2.502717375755310059e-01,-2.577231824398040771e-01,-2.577231824398040771e-01,-2.463859319686889648e-01,-2.463859319686889648e-01,-2.463859319686889648e-01,-2.333999574184417725e-01,-2.333999574184417725e-01,-2.333999574184417725e-01,-2.333999574184417725e-01,-2.206337451934814453e-01,-2.206337451934814453e-01,-2.078674435615539551e-01,-2.078674435615539551e-01,-2.078674435615539551e-01,-1.972755044698715210e-01,-1.972755044698715210e-01,-1.892292946577072144e-01,-2.042394131422042847e-01,-2.042394131422042847e-01,-2.042394131422042847e-01,-1.939702481031417847e-01,-1.939702481031417847e-01,-1.939702481031417847e-01,-1.856141388416290283e-01,-1.856141388416290283e-01,-1.856141388416290283e-01,-1.790933758020401001e-01,-1.790933758020401001e-01,-1.897646635770797729e-01,-1.897646635770797729e-01,-1.820637732744216919e-01,-1.820637732744216919e-01,-1.820637732744216919e-01,-1.774633973836898804e-01,-1.774633973836898804e-01,-1.774633973836898804e-01,-1.913433074951171875e-01,-1.913433074951171875e-01,-1.873259395360946655e-01,-1.873259395360946655e-01,-1.873259395360946655e-01,-1.991912424564361572e-01,-1.991912424564361572e-01,-1.991912424564361572e-01,-2.106792777776718140e-01,-2.103082239627838135e-01,-2.103082239627838135e-01,-2.103082239627838135e-01,-2.103082239627838135e-01,-2.139302641153335571e-01,-2.139302641153335571e-01,-2.139302641153335571e-01,-2.139302641153335571e-01,-2.037806212902069092e-01,-2.037806212902069092e-01,-2.037806212902069092e-01,-2.064476460218429565e-01,-1.027074977755546570e-01,-1.027074977755546570e-01,-3.849389404058456421e-02,-3.849389404058456421e-02,-2.014758586883544922e-01,-2.014758586883544922e-01,-1.387645155191421509e-01,-1.387645155191421509e-01,1.699153333902359009e-02,1.699153333902359009e-02,1.486030966043472290e-01,1.486030966043472290e-01,1.486030966043472290e-01,2.319493889808654785e-01,2.319493889808654785e-01,2.319493889808654785e-01,2.772151827812194824e-01,2.772151827812194824e-01,2.772151827812194824e-01,3.013027012348175049e-01,2.694462835788726807e-01,2.694462835788726807e-01,2.694462835788726807e-01,2.694462835788726807e-01,3.128019869327545166e-01,3.128019869327545166e-01,3.128019869327545166e-01,3.128019869327545166e-01,3.284218013286590576e-01,3.284218013286590576e-01,3.284218013286590576e-01,3.284218013286590576e-01,3.267628252506256104e-01,3.267628252506256104e-01,3.267628252506256104e-01,3.259843587875366211e-01,3.268600106239318848e-01,3.268600106239318848e-01,3.268600106239318848e-01
-2.153865844011306763e-01,-2.074060291051864624e-01,-2.176661640405654907e-01,-2.113436609506607056e-01,-2.113436609506607056e-01,-2.113436609506607056e-01,-2.205102294683456421e-01,-2.205102294683456421e-01,-2.205102294683456421e-01,-2.205102294683456421e-01,-2.242702841758728027e-01,-2.242702841758728027e-01,-2.242702841758728027e-01,-2.324079871177673340e-01,-2.324079871177673340e-01,-2.324079871177673340e-01,-2.271091490983963013e-01,-2.271091490983963013e-01,-2.206824421882629395e-01,-2.206824421882629395e-01,-2.278386801481246948e-01,-2.278386801481246948e-01,-2.190176993608474731e-01,-2.190176993608474731e-01,-2.190176993608474731e-01,-2.099401801824569702e-01,-2.099401801824569702e-01,-2.099401801824569702e-01,-2.099401801824569702e-01,-2.013870328664779663e-01,-2.013870328664779663e-01,-1.917010694742202759e-01,-1.917010694742202759e-01,-1.917010694742202759e-01,-1.820767819881439209e-01,-1.820767819881439209e-01,-1.743474900722503662e-01,-1.884213835000991821e-01,-1.884213835000991821e-01,-1.884213835000991821e-01,-1.798758059740066528e-01,-1.798758059740066528e-01,-1.798758059740066528e-01,-1.741598248481750488e-01,-1.741598248481750488e-01,-1.741598248481750488e-01,-1.710979044437408447e-01,-1.710979044437408447e-01,-1.802364587783813477e-01,-1.802364587783813477e-01,-1.754102706909179688e-01,-1.754102706909179688e-01,-1.754102706909179688e-01,-1.725655049085617065e-01,-1.725655049085617065e-01,-1.725655049085617065e-01,-1.852889508008956909e-01,-1.852889508008956909e-01,-1.830102950334548950e-01,-1.830102950334548950e-01,-1.830102950334548950e-01,-1.948226392269134521e-01,-1.948226392269134521e-01,-1.948226392269134521e-01,-2.088933289051055908e-01,-2.133709192276000977e-01,-2.133709192276000977e-01,-2.133709192276000977e-01,-2.133709192276000977e-01,-2.192849665880203247e-01,-2.192849665880203247e-01,-2.192849665880203247e-01,-2.192849665880203247e-01,-2.042661607265472412e-01,-2.042661607265472412e-01,-2.042661607265472412e-01,-2.085717320442199707e-01,-9.836500138044357300e-02,-9.836500138044357300e-02,-2.824152819812297821e-02,-2.824152819812297821e-02,-1.996355503797531128e-01,-1.996355503797531128e-01,-1.349581182003021240e-01,-1.349581182003021240e-01,3.095592930912971497e-02,3.095592930912971497e-02,1.570135802030563354e-01,1.570135802030563354e-01,1.570135802030563354e-01,2.349119633436203003e-01,2.349119633436203003e-01,2.349119633436203003e-01,2.759055197238922119e-01,2.759055197238922119e-01,2.759055197238922119e-01,2.924032807350158691e-01,2.619057595729827881e-01,2.619057595729827881e-01,2.619057595729827881e-01,2.619057595729827881e-01,2.916400730609893799e-01,2.916400730609893799e-01,2.916400730609893799e-01,2.916400730609893799e-01,2.999382019042968750e-01,2.999382019042968750e-01,2.999382019042968750e-01,2.999382019042968750e-01,2.952104508876800537e-01,2.952104508876800537e-01,2.952104508876800537e-01,2.927061021327972412e-01,2.914754450321197510e-01,2.914754450321197510e-01,2.914754450321197510e-01
-1.733330488204956055e-01,-1.696803867816925049e-01,-1.731060743331909180e-01,-1.703953295946121216e-01,-1.703953295946121216e-01,-1.703953295946121216e-01,-1.736323535442352295e-01,-1.736323535442352295e-01,-1.736323535442352295e-01,-1.736323535442352295e-01,-1.747741103172302246e-01,-1.747741103172302246e-01,-1.747741103172302246e-01,-1.800223737955093384e-01,-1.800223737955093384e-01,-1.800223737955093384e-01,-1.800415366888046265e-01,-1.800415366888046265e-01,-1.785096228122711182e-01,-1.785096228122711182e-01,-1.850564032793045044e-01,-1.850564032793045044e-01,-1.800473630428314209e-01,-1.800473630428314209e-01,-1.800473630428314209e-01,-1.735426634550094604e-01,-1.735426634550094604e-01,-1.735426634550094604e-01,-1.735426634550094604e-01,-1.655841767787933350e-01,-1.655841767787933350e-01,-1.568016707897186279e-01,-1.568016707897186279e-01,-1.568016707897186279e-01,-1.485943496227264404e-01,-1.485943496227264404e-01,-1.409334540367126465e-01,-1.554534882307052612e-01,-1.554534882307052612e-01,-1.554534882307052612e-01,-1.460648179054260254e-01,-1.460648179054260254e-01,-1.460648179054260254e-01,-1.390963047742843628e-01,-1.390963047742843628e-01,-1.390963047742843628e-01,-1.350840181112289429e-01,-1.350840181112289429e-01,-1.461905688047409058e-01,-1.461905688047409058e-01,-1.404737234115600586e-01,-1.404737234115600586e-01,-1.404737234115600586e-01,-1.376372575759887695e-01,-1.376372575759887695e-01,-1.376372575759887695e-01,-1.495868712663650513e-01,-1.495868712663650513e-01,-1.471520960330963135e-01,-1.471520960330963135e-01,-1.471520960330963135e-01,-1.560072749853134155e-01,-1.560072749853134155e-01,-1.560072749853134155e-01,-1.710026562213897705e-01,-1.828886717557907104e-01,-1.828886717557907104e-01,-1.828886717557907104e-01,-1.828886717557907104e-01,-1.926288604736328125e-01,-1.926288604736328125e-01,-1.926288604736328125e-01,-1.926288604736328125e-01,-1.673884093761444092e-01,-1.673884093761444092e-01,-1.673884093761444092e-01,-1.694596856832504272e-01,-3.478242829442024231e-02,-3.478242829442024231e-02,4.106414690613746643e-02,4.106414690613746643e-02,-1.666449308395385742e-01,-1.666449308395385742e-01,-9.152377396821975708e-02,-9.152377396821975708e-02,1.042663678526878357e-01,1.042663678526878357e-01,2.218268364667892456e-01,2.218268364667892456e-01,2.218268364667892456e-01,2.972173690795898438e-01,2.972173690795898438e-01,2.972173690795898438e-01,3.374895751476287842e-01,3.374895751476287842e-01,3.374895751476287842e-01,3.515695929527282715e-01,3.245224356651306152e-01,3.245224356651306152e-01,3.245224356651306152e-01,3.245224356651306152e-01,3.425962328910827637e-01,3.425962328910827637e-01,3.425962328910827637e-01,3.425962328910827637e-01,3.319998979568481445e-01,3.319998979568481445e-01,3.319998979568481445e-01,3.319998979568481445e-01,3.289800584316253662e-01,3.289800584316253662e-01,3.289800584316253662e-01,3.202719092369079590e-01,3.256048858165740967e-01,3.256048858165740967e-01,3.256048858165740967e-01
-1.335076987743377686e-01,-1.364983916282653809e-01,-1.340185701847076416e-01,-1.361790597438812256e-01,-1.361790597438812256e-01,-1.361790597438812256e-01,-1.331953257322311401e-01,-1.331953257322311401e-01,-1.331953257322311401e-01,-1.331953257322311401e-01,-1.318512409925460815e-01,-1.318512409925460815e-01,-1.318512409925460815e-01,-1.319758892059326172e-01,-1.319758892059326172e-01,-1.319758892059326172e-01,-1.327607929706573486e-01,-1.327607929706573486e-01,-1.332737058401107788e-01,-1.332737058401107788e-01,-1.335925012826919556e-01,-1.335925012826919556e-01,-1.329555660486221313e-01,-1.329555660486221313e-01,-1.329555660486221313e-01,-1.327536255121231079e-01,-1.327536255121231079e-01,-1.327536255121231079e-01,-1.327536255121231079e-01,-1.313079744577407837e-01,-1.313079744577407837e-01,-1.282653063535690308e-01,-1.282653063535690308e-01,-1.282653063535690308e-01,-1.243414357304573059e-01,-1.243414357304573059e-01,-1.202939599752426147e-01,-1.226692274212837219e-01,-1.226692274212837219e-01,-1.226692274212837219e-01,-1.197622865438461304e-01,-1.197622865438461304e-01,-1.197622865438461304e-01,-1.176125779747962952e-01,-1.176125779747962952e-01,-1.176125779747962952e-01,-1.175645440816879272e-01,-1.175645440816879272e-01,-1.217737719416618347e-01,-1.217737719416618347e-01,-1.258256584405899048e-01,-1.258256584405899048e-01,-1.258256584405899048e-01,-1.318442970514297485e-01,-1.318442970514297485e-01,-1.318442970514297485e-01,-1.311149299144744873e-01,-1.311149299144744873e-01,-1.372757703065872192e-01,-1.372757703065872192e-01,-1.372757703065872192e-01,-1.339419037103652954e-01,-1.339419037103652954e-01,-1.339419037103652954e-01,-1.298785954713821411e-01,-1.409262865781784058e-01,-1.409262865781784058e-01,-1.409262865781784058e-01,-1.409262865781784058e-01,-1.325462758541107178e-01,-1.325462758541107178e-01,-1.325462758541107178e-01,-1.325462758541107178e-01,-1.116858497262001038e-01,-1.116858497262001038e-01,-1.116858497262001038e-01,-1.137073263525962830e-01,2.162052690982818604e-02,2.162052690982818604e-02,1.069638803601264954e-01,1.069638803601264954e-01,-9.829167276620864868e-02,-9.829167276620864868e-02,-3.641767660155892372e-03,-3.641767660155892372e-03,1.898553520441055298e-01,1.898553520441055298e-01,3.108530938625335693e-01,3.108530938625335693e-01,3.108530938625335693e-01,3.796250522136688232e-01,3.796250522136688232e-01,3.796250522136688232e-01,4.120306670665740967e-01,4.120306670665740967e-01,4.120306670665740967e-01,4.242929220199584961e-01,4.052320420742034912e-01,4.052320420742034912e-01,4.052320420742034912e-01,4.052320420742034912e-01,4.144445061683654785e-01,4.144445061683654785e-01,4.144445061683654785e-01,4.144445061683654785e-01,3.977152705192565918e-01,3.977152705192565918e-01,3.977152705192565918e-01,3.977152705192565918e-01,3.939312994480133057e-01,3.939312994480133057e-01,3.939312994480133057e-01,3.843910694122314453e-01,3.878224492073059082e-01,3.878224492073059082e-01,3.878224492073059082e-01
-1.150935962796211243e-01,-1.225515380501747131e-01,-1.172664016485214233e-01,-1.247991994023323059e-01,-1.247991994023323059e-01,-1.247991994023323059e-01,-1.178669631481170654e-01,-1.178669631481170654e-01,-1.178669631481170654e-01,-1.178669631481170654e-01,-1.164792627096176147e-01,-1.164792627096176147e-01,-1.164792627096176147e-01,-1.158293113112449646e-01,-1.158293113112449646e-01,-1.158293113112449646e-01,-1.206272765994071960e-01,-1.206272765994071960e-01,-1.248515695333480835e-01,-1.248515695333480835e-01,-1.225937902927398682e-01,-1.225937902927398682e-01,-1.249149963259696960e-01,-1.249149963259696960e-01,-1.249149963259696960e-01,-1.269330382347106934e-01,-1.269330382347106934e-01,-1.269330382347106934e-01,-1.269330382347106934e-01,-1.282014548778533936e-01,-1.282014548778533936e-01,-1.283610314130783081e-01,-1.283610314130783081e-01,-1.283610314130783081e-01,-1.277373880147933960e-01,-1.277373880147933960e-01,-1.269965320825576782e-01,-1.237295269966125488e-01,-1.237295269966125488e-01,-1.237295269966125488e-01,-1.230365484952926636e-01,-1.230365484952926636e-01,-1.230365484952926636e-01,-1.222498789429664612e-01,-1.222498789429664612e-01,-1.222498789429664612e-01,-1.233173310756683350e-01,-1.233173310756683350e-01,-1.258753538131713867e-01,-1.258753538131713867e-01,-1.321946084499359131e-01,-1.321946084499359131e-01,-1.321946084499359131e-01,-1.402120441198348999e-01,-1.402120441198348999e-01,-1.402120441198348999e-01,-1.395615488290786743e-01,-1.395615488290786743e-01,-1.464632600545883179e-01,-1.464632600545883179e-01,-1.464632600545883179e-01,-1.480564624071121216e-01,-1.480564624071121216e-01,-1.480564624071121216e-01,-1.522248685359954834e-01,-1.544847190380096436e-01,-1.544847190380096436e-01,-1.544847190380096436e-01,-1.544847190380096436e-01,-1.540629863739013672e-01,-1.540629863739013672e-01,-1.540629863739013672e-01,-1.540629863739013672e-01,-1.439922600984573364e-01,-1.439922600984573364e-01,-1.439922600984573364e-01,-1.447897553443908691e-01,-4.606225341558456421e-02,-4.606225341558456421e-02,3.050502948462963104e-02,3.050502948462963104e-02,-1.038848087191581726e-01,-1.038848087191581726e-01,-2.002934366464614868e-02,-2.002934366464614868e-02,9.944342076778411865e-02,9.944342076778411865e-02,2.365808188915252686e-01,2.365808188915252686e-01,2.365808188915252686e-01,3.207419514656066895e-01,3.207419514656066895e-01,3.207419514656066895e-01,3.564656078815460205e-01,3.564656078815460205e-01,3.564656078815460205e-01,3.731921017169952393e-01,3.477751314640045166e-01,3.477751314640045166e-01,3.477751314640045166e-01,3.477751314640045166e-01,3.762406408786773682e-01,3.762406408786773682e-01,3.762406408786773682e-01,3.762406408786773682e-01,3.794567584991455078e-01,3.794567584991455078e-01,3.794567584991455078e-01,3.794567584991455078e-01,3.795269727706909180e-01,3.795269727706909180e-01,3.795269727706909180e-01,3.809325695037841797e-01,3.806640803813934326e-01,3.806640803813934326e-01,3.806640803813934326e-01
-1.027546450495719910e-01,-1.074314191937446594e-01,-1.104636266827583313e-01,-1.146662458777427673e-01,-1.146662458777427673e-01,-1.146662458777427673e-01,-1.150033771991729736e-01,-1.150033771991729736e-01,-1.150033771991729736e-01,-1.150033771991729736e-01,-1.165792942047119141e-01,-1.165792942047119141e-01,-1.165792942047119141e-01,-1.186060905456542969e-01,-1.186060905456542969e-01,-1.186060905456542969e-01,-1.212292313575744629e-01,-1.212292313575744629e-01,-1.252797245979309082e-01,-1.252797245979309082e-01,-1.265644878149032593e-01,-1.265644878149032593e-01,-1.288729906082153320e-01,-1.288729906082153320e-01,-1.288729906082153320e-01,-1.309342980384826660e-01,-1.309342980384826660e-01,-1.309342980384826660e-01,-1.309342980384826660e-01,-1.319343298673629761e-01,-1.319343298673629761e-01,-1.315291225910186768e-01,-1.315291225910186768e-01,-1.315291225910186768e-01,-1.304368376731872559e-01,-1.304368376731872559e-01,-1.299424022436141968e-01,-1.288669258356094360e-01,-1.288669258356094360e-01,-1.288669258356094360e-01,-1.286485195159912109e-01,-1.286485195159912109e-01,-1.286485195159912109e-01,-1.295356303453445435e-01,-1.295356303453445435e-01,-1.295356303453445435e-01,-1.321941316127777100e-01,-1.321941316127777100e-01,-1.313602030277252197e-01,-1.313602030277252197e-01,-1.350029259920120239e-01,-1.350029259920120239e-01,-1.350029259920120239e-01,-1.390297710895538330e-01,-1.390297710895538330e-01,-1.390297710895538330e-01,-1.361560076475143433e-01,-1.361560076475143433e-01,-1.433592885732650757e-01,-1.433592885732650757e-01,-1.433592885732650757e-01,-1.432631909847259521e-01,-1.432631909847259521e-01,-1.432631909847259521e-01,-1.498201340436935425e-01,-1.575451642274856567e-01,-1.575451642274856567e-01,-1.575451642274856567e-01,-1.575451642274856567e-01,-1.609865278005599976e-01,-1.609865278005599976e-01,-1.609865278005599976e-01,-1.609865278005599976e-01,-1.534239351749420166e-01,-1.534239351749420166e-01,-1.534239351749420166e-01,-1.528633087873458862e-01,-5.648421123623847961e-02,-5.648421123623847961e-02,1.568051055073738098e-02,1.568051055073738098e-02,-1.116492152214050293e-01,-1.116492152214050293e-01,-3.334158658981323242e-02,-3.334158658981323242e-02,8.134737610816955566e-02,8.134737610816955566e-02,2.130468934774398804e-01,2.130468934774398804e-01,2.130468934774398804e-01,2.987635135650634766e-01,2.987635135650634766e-01,2.987635135650634766e-01,3.350056707859039307e-01,3.350056707859039307e-01,3.350056707859039307e-01,3.539251983165740967e-01,3.294898271560668945e-01,3.294898271560668945e-01,3.294898271560668945e-01,3.294898271560668945e-01,3.642317950725555420e-01,3.642317950725555420e-01,3.642317950725555420e-01,3.642317950725555420e-01,3.791367113590240479e-01,3.791367113590240479e-01,3.791367113590240479e-01,3.791367113590240479e-01,3.814651966094970703e-01,3.814651966094970703e-01,3.814651966094970703e-01,3.800060749053955078e-01,3.788234293460845947e-01,3.788234293460845947e-01,3.788234293460845947e-01
-7.319271564483642578e-02,-6.872969865798950195e-02,-8.057076483964920044e-02,-8.055607974529266357e-02,-8.055607974529266357e-02,-8.055607974529266357e-02,-9.364470094442367554e-02,-9.364470094442367554e-02,-9.364470094442367554e-02,-9.364470094442367554e-02,-1.071342155337333679e-01,-1.071342155337333679e-01,-1.071342155337333679e-01,-1.215910091996192932e-01,-1.215910091996192932e-01,-1.215910091996192932e-01,-1.204261258244514465e-01,-1.204261258244514465e-01,-1.188996359705924988e-01,-1.188996359705924988e-01,-1.277607232332229614e-01,-1.277607232332229614e-01,-1.240704655647277832e-01,-1.240704655647277832e-01,-1.240704655647277832e-01,-1.222197487950325012e-01,-1.222197487950325012e-01,-1.222197487950325012e-01,-1.222197487950325012e-01,-1.218246519565582275e-01,-1.218246519565582275e-01,-1.213086992502212524e-01,-1.213086992502212524e-01,-1.213086992502212524e-01,-1.203124821186065674e-01,-1.203124821186065674e-01,-1.193078309297561646e-01,-1.210806444287300110e-01,-1.210806444287300110e-01,-1.210806444287300110e-01,-1.193000301718711853e-01,-1.193000301718711853e-01,-1.193000301718711853e-01,-1.180240958929061890e-01,-1.180240958929061890e-01,-1.180240958929061890e-01,-1.176839098334312439e-01,-1.176839098334312439e-01,-1.190601587295532227e-01,-1.190601587295532227e-01,-1.180356219410896301e-01,-1.180356219410896301e-01,-1.180356219410896301e-01,-1.175659745931625366e-01,-1.175659745931625366e-01,-1.175659745931625366e-01,-1.209189519286155701e-01,-1.209189519286155701e-01,-1.225578859448432922e-01,-1.225578859448432922e-01,-1.225578859448432922e-01,-1.274247914552688599e-01,-1.274247914552688599e-01,-1.274247914552688599e-01,-1.370421200990676880e-01,-1.403113007545471191e-01,-1.403113007545471191e-01,-1.403113007545471191e-01,-1.403113007545471191e-01,-1.419257670640945435e-01,-1.419257670640945435e-01,-1.419257670640945435e-01,-1.419257670640945435e-01,-1.336186528205871582e-01,-1.336186528205871582e-01,-1.336186528205871582e-01,-1.351775676012039185e-01,-4.272790625691413879e-02,-4.272790625691413879e-02,2.137872017920017242e-02,2.137872017920017242e-02,-9.793334454298019409e-02,-9.793334454298019409e-02,-3.148138895630836487e-02,-3.148138895630836487e-02,7.645706832408905029e-02,7.645706832408905029e-02,2.016569972038269043e-01,2.016569972038269043e-01,2.016569972038269043e-01,2.840365171432495117e-01,2.840365171432495117e-01,2.840365171432495117e-01,3.187498152256011963e-01,3.187498152256011963e-01,3.187498152256011963e-01,3.430753648281097412e-01,3.178204298019409180e-01,3.178204298019409180e-01,3.178204298019409180e-01,3.178204298019409180e-01,3.646757900714874268e-01,3.646757900714874268e-01,3.646757900714874268e-01,3.646757900714874268e-01,3.953208327293395996e-01,3.953208327293395996e-01,3.953208327293395996e-01,3.953208327293395996e-01,3.955947458744049072e-01,3.955947458744049072e-01,3.955947458744049072e-01,3.916491270065307617e-01,3.904416859149932861e-01,3.904416859149932861e-01,3.904416859149932861e-01
-6.092321127653121948e-02,-5.181857198476791382e-02,-5.475448071956634521e-02,-4.719035699963569641e-02,-4.719035699963569641e-02,-4.719035699963569641e-02,-5.574760213494300842e-02,-5.574760213494300842e-02,-5.574760213494300842e-02,-5.574760213494300842e-02,-6.314985454082489014e-02,-6.314985454082489014e-02,-6.314985454082489014e-02,-7.945326715707778931e-02,-7.945326715707778931e-02,-7.945326715707778931e-02,-7.759827375411987305e-02,-7.759827375411987305e-02,-7.229097932577133179e-02,-7.229097932577133179e-02,-8.506918698549270630e-02,-8.506918698549270630e-02,-7.886508852243423462e-02,-7.886508852243423462e-02,-7.886508852243423462e-02,-7.694348692893981934e-02,-7.694348692893981934e-02,-7.694348692893981934e-02,-7.694348692893981934e-02,-7.969190925359725952e-02,-7.969190925359725952e-02,-8.415027707815170288e-02,-8.415027707815170288e-02,-8.415027707815170288e-02,-8.786264061927795410e-02,-8.786264061927795410e-02,-9.117175638675689697e-02,-9.187296032905578613e-02,-9.187296032905578613e-02,-9.187296032905578613e-02,-9.556028246879577637e-02,-9.556028246879577637e-02,-9.556028246879577637e-02,-9.695653617382049561e-02,-9.695653617382049561e-02,-9.695653617382049561e-02,-9.740521013736724854e-02,-9.740521013736724854e-02,-1.001664102077484131e-01,-1.001664102077484131e-01,-1.004052534699440002e-01,-1.004052534699440002e-01,-1.004052534699440002e-01,-9.991966933012008667e-02,-9.991966933012008667e-02,-9.991966933012008667e-02,-1.034870222210884094e-01,-1.034870222210884094e-01,-1.044713780283927917e-01,-1.044713780283927917e-01,-1.044713780283927917e-01,-1.093509495258331299e-01,-1.093509495258331299e-01,-1.093509495258331299e-01,-1.188180595636367798e-01,-1.192378848791122437e-01,-1.192378848791122437e-01,-1.192378848791122437e-01,-1.192378848791122437e-01,-1.209133863449096680e-01,-1.209133863449096680e-01,-1.209133863449096680e-01,-1.209133863449096680e-01,-1.120207086205482483e-01,-1.120207086205482483e-01,-1.120207086205482483e-01,-1.134443730115890503e-01,-2.198154106736183167e-02,-2.198154106736183167e-02,3.259189799427986145e-02,3.259189799427986145e-02,-7.895778864622116089e-02,-7.895778864622116089e-02,-2.105042897164821625e-02,-2.105042897164821625e-02,8.235237002372741699e-02,8.235237002372741699e-02,1.985579431056976318e-01,1.985579431056976318e-01,1.985579431056976318e-01,2.726519405841827393e-01,2.726519405841827393e-01,2.726519405841827393e-01,3.086429834365844727e-01,3.086429834365844727e-01,3.086429834365844727e-01,3.398404717445373535e-01,3.120535612106323242e-01,3.120535612106323242e-01,3.120535612106323242e-01,3.120535612106323242e-01,3.682978153228759766e-01,3.682978153228759766e-01,3.682978153228759766e-01,3.682978153228759766e-01,4.062041938304901123e-01,4.062041938304901123e-01,4.062041938304901123e-01,4.062041938304901123e-01,4.036070108413696289e-01,4.036070108413696289e-01,4.036070108413696289e-01,3.973704278469085693e-01,3.961815834045410156e-01,3.961815834045410156e-01,3.961815834045410156e-01
-9.779695421457290649e-02,-8.881861716508865356e-02,-9.598825126886367798e-02,-8.551462739706039429e-02,-8.551462739706039429e-02,-8.551462739706039429e-02,-9.486687183380126953e-02,-9.486687183380126953e-02,-9.486687183380126953e-02,-9.486687183380126953e-02,-9.784607589244842529e-02,-9.784607589244842529e-02,-9.784607589244842529e-02,-1.068240627646446228e-01,-1.068240627646446228e-01,-1.068240627646446228e-01,-1.001184731721878052e-01,-1.001184731721878052e-01,-9.133927524089813232e-02,-9.133927524089813232e-02,-1.010760739445686340e-01,-1.010760739445686340e-01,-9.032667428255081177e-02,-9.032667428255081177e-02,-9.032667428255081177e-02,-7.809587568044662476e-02,-7.809587568044662476e-02,-7.809587568044662476e-02,-7.809587568044662476e-02,-6.596863269805908203e-02,-6.596863269805908203e-02,-5.601964890956878662e-02,-5.601964890956878662e-02,-5.601964890956878662e-02,-5.123890563845634460e-02,-5.123890563845634460e-02,-5.153356119990348816e-02,-6.048746779561042786e-02,-6.048746779561042786e-02,-6.048746779561042786e-02,-5.896300822496414185e-02,-5.896300822496414185e-02,-5.896300822496414185e-02,-6.085271015763282776e-02,-6.085271015763282776e-02,-6.085271015763282776e-02,-6.447155773639678955e-02,-6.447155773639678955e-02,-6.865487992763519287e-02,-6.865487992763519287e-02,-7.019342482089996338e-02,-7.019342482089996338e-02,-7.019342482089996338e-02,-7.552224397659301758e-02,-7.552224397659301758e-02,-7.552224397659301758e-02,-8.354712277650833130e-02,-8.354712277650833130e-02,-8.935353904962539673e-02,-8.935353904962539673e-02,-8.935353904962539673e-02,-9.697520732879638672e-02,-9.697520732879638672e-02,-9.697520732879638672e-02,-1.100109815597534180e-01,-1.188418120145797729e-01,-1.188418120145797729e-01,-1.188418120145797729e-01,-1.188418120145797729e-01,-1.224980875849723816e-01,-1.224980875849723816e-01,-1.224980875849723816e-01,-1.224980875849723816e-01,-1.105558648705482483e-01,-1.105558648705482483e-01,-1.105558648705482483e-01,-1.089307144284248352e-01,9.742517955601215363e-03,9.742517955601215363e-03,7.239543646574020386e-02,7.239543646574020386e-02,-7.667467743158340454e-02,-7.667467743158340454e-02,5.589523352682590485e-03,5.589523352682590485e-03,1.428805142641067505e-01,1.428805142641067505e-01,2.628367245197296143e-01,2.628367245197296143e-01,2.628367245197296143e-01,3.395096957683563232e-01,3.395096957683563232e-01,3.395096957683563232e-01,3.758352696895599365e-01,3.758352696895599365e-01,3.758352696895599365e-01,3.936976790428161621e-01,3.655500113964080811e-01,3.655500113964080811e-01,3.655500113964080811e-01,3.655500113964080811e-01,3.968942165374755859e-01,3.968942165374755859e-01,3.968942165374755859e-01,3.968942165374755859e-01,4.021880328655242920e-01,4.021880328655242920e-01,4.021880328655242920e-01,4.021880328655242920e-01,3.957926928997039795e-01,3.957926928997039795e-01,3.957926928997039795e-01,3.902246952056884766e-01,3.885359168052673340e-01,3.885359168052673340e-01,3.885359168052673340e-01
-1.126242503523826599e-01,-1.007580980658531189e-01,-1.132055073976516724e-01,-1.043926402926445007e-01,-1.043926402926445007e-01,-1.043926402926445007e-01,-1.142405644059181213e-01,-1.142405644059181213e-01,-1.142405644059181213e-01,-1.142405644059181213e-01,-1.159052699804306030e-01,-1.159052699804306030e-01,-1.159052699804306030e-01,-1.218279227614402771e-01,-1.218279227614402771e-01,-1.218279227614402771e-01,-1.171984523534774780e-01,-1.171984523534774780e-01,-1.124319881200790405e-01,-1.124319881200790405e-01,-1.180096119642257690e-01,-1.180096119642257690e-01,-1.111918985843658447e-01,-1.111918985843658447e-01,-1.111918985843658447e-01,-1.028572097420692444e-01,-1.028572097420692444e-01,-1.028572097420692444e-01,-1.028572097420692444e-01,-9.308312833309173584e-02,-9.308312833309173584e-02,-8.240663260221481323e-02,-8.240663260221481323e-02,-8.240663260221481323e-02,-7.064478099346160889e-02,-7.064478099346160889e-02,-5.672516673803329468e-02,-7.916732132434844971e-02,-7.916732132434844971e-02,-7.916732132434844971e-02,-6.574311107397079468e-02,-6.574311107397079468e-02,-6.574311107397079468e-02,-5.463242158293724060e-02,-5.463242158293724060e-02,-5.463242158293724060e-02,-4.570623859763145447e-02,-4.570623859763145447e-02,-6.398051977157592773e-02,-6.398051977157592773e-02,-5.498549714684486389e-02,-5.498549714684486389e-02,-5.498549714684486389e-02,-5.247448384761810303e-02,-5.247448384761810303e-02,-5.247448384761810303e-02,-6.820130348205566406e-02,-6.820130348205566406e-02,-6.722187995910644531e-02,-6.722187995910644531e-02,-6.722187995910644531e-02,-7.906157523393630981e-02,-7.906157523393630981e-02,-7.906157523393630981e-02,-9.357246756553649902e-02,-1.040867567062377930e-01,-1.040867567062377930e-01,-1.040867567062377930e-01,-1.040867567062377930e-01,-1.095352172851562500e-01,-1.095352172851562500e-01,-1.095352172851562500e-01,-1.095352172851562500e-01,-9.494172036647796631e-02,-9.494172036647796631e-02,-9.494172036647796631e-02,-9.446265548467636108e-02,2.699675969779491425e-02,2.699675969779491425e-02,9.882771223783493042e-02,9.882771223783493042e-02,-6.955380737781524658e-02,-6.955380737781524658e-02,1.562420558184385300e-02,1.562420558184385300e-02,1.722629666328430176e-01,1.722629666328430176e-01,2.900795638561248779e-01,2.900795638561248779e-01,2.900795638561248779e-01,3.572179675102233887e-01,3.572179675102233887e-01,3.572179675102233887e-01,3.938649296760559082e-01,3.938649296760559082e-01,3.938649296760559082e-01,4.070184230804443359e-01,3.773206174373626709e-01,3.773206174373626709e-01,3.773206174373626709e-01,3.773206174373626709e-01,3.972104489803314209e-01,3.972104489803314209e-01,3.972104489803314209e-01,3.972104489803314209e-01,3.844109177589416504e-01,3.844109177589416504e-01,3.844109177589416504e-01,3.844109177589416504e-01,3.745402693748474121e-01,3.745402693748474121e-01,3.745402693748474121e-01,3.681298196315765381e-01,3.677185773849487305e-01,3.677185773849487305e-01,3.677185773849487305e-01
-1.557900905609130859e-01,-1.453579366207122803e-01,-1.543739289045333862e-01,-1.462365239858627319e-01,-1.462365239858627319e-01,-1.462365239858627319e-01,-1.541210263967514038e-01,-1.541210263967514038e-01,-1.541210263967514038e-01,-1.541210263967514038e-01,-1.557220965623855591e-01,-1.557220965623855591e-01,-1.557220965623855591e-01,-1.613713204860687256e-01,-1.613713204860687256e-01,-1.613713204860687256e-01,-1.561581939458847046e-01,-1.561581939458847046e-01,-1.501966863870620728e-01,-1.501966863870620728e-01,-1.554028838872909546e-01,-1.554028838872909546e-01,-1.466279029846191406e-01,-1.466279029846191406e-01,-1.466279029846191406e-01,-1.367006003856658936e-01,-1.367006003856658936e-01,-1.367006003856658936e-01,-1.367006003856658936e-01,-1.264820843935012817e-01,-1.264820843935012817e-01,-1.145956814289093018e-01,-1.145956814289093018e-01,-1.145956814289093018e-01,-1.023911535739898682e-01,-1.023911535739898682e-01,-8.991187810897827148e-02,-1.045166328549385071e-01,-1.045166328549385071e-01,-1.045166328549385071e-01,-9.077264368534088135e-02,-9.077264368534088135e-02,-9.077264368534088135e-02,-7.999233901500701904e-02,-7.999233901500701904e-02,-7.999233901500701904e-02,-7.160477340221405029e-02,-7.160477340221405029e-02,-8.504778891801834106e-02,-8.504778891801834106e-02,-7.622290402650833130e-02,-7.622290402650833130e-02,-7.622290402650833130e-02,-7.194590568542480469e-02,-7.194590568542480469e-02,-7.194590568542480469e-02,-8.687911182641983032e-02,-8.687911182641983032e-02,-8.313935995101928711e-02,-8.313935995101928711e-02,-8.313935995101928711e-02,-9.449256956577301025e-02,-9.449256956577301025e-02,-9.449256956577301025e-02,-1.104031577706336975e-01,-1.176377832889556885e-01,-1.176377832889556885e-01,-1.176377832889556885e-01,-1.176377832889556885e-01,-1.227102577686309814e-01,-1.227102577686309814e-01,-1.227102577686309814e-01,-1.227102577686309814e-01,-9.515750408172607422e-02,-9.515750408172607422e-02,-9.515750408172607422e-02,-1.008814647793769836e-01,4.149721562862396240e-02,4.149721562862396240e-02,1.219160407781600952e-01,1.219160407781600952e-01,-9.228059649467468262e-02,-9.228059649467468262e-02,-9.039366617798805237e-03,-9.039366617798805237e-03,1.870561987161636353e-01,1.870561987161636353e-01,3.118059933185577393e-01,3.118059933185577393e-01,3.118059933185577393e-01,3.892516791820526123e-01,3.892516791820526123e-01,3.892516791820526123e-01,4.290320277214050293e-01,4.290320277214050293e-01,4.290320277214050293e-01,4.439917206764221191e-01,4.108596742153167725e-01,4.108596742153167725e-01,4.108596742153167725e-01,4.108596742153167725e-01,4.208102524280548096e-01,4.208102524280548096e-01,4.208102524280548096e-01,4.208102524280548096e-01,3.965617716312408447e-01,3.965617716312408447e-01,3.965617716312408447e-01,3.965617716312408447e-01,3.908716440200805664e-01,3.908716440200805664e-01,3.908716440200805664e-01,3.817618489265441895e-01,3.844112157821655273e-01,3.844112157821655273e-01,3.844112157821655273e-01
