-1.080051586031913757e-01,-1.175027042627334595e-01,-1.040056943893432617e-01,-1.040056943893432617e-01,-1.040056943893432617e-01,-1.161027774214744568e-01,-1.161027774214744568e-01,-1.161027774214744568e-01,-1.161027774214744568e-01,-1.160389557480812073e-01,-1.160389557480812073e-01,-1.160389557480812073e-01,-1.187563911080360413e-01,-1.187563911080360413e-01,-1.187563911080360413e-01,-1.109981760382652283e-01,-1.109981760382652283e-01,-1.045381575822830200e-01,-1.045381575822830200e-01,-1.079428419470787048e-01,-1.079428419470787048e-01,-9.943879395723342896e-02,-9.943879395723342896e-02,-9.943879395723342896e-02,-8.950052410364151001e-02,-8.950052410364151001e-02,-8.950052410364151001e-02,-8.950052410364151001e-02,-7.795177400112152100e-02,-7.795177400112152100e-02,-6.505220383405685425e-02,-6.505220383405685425e-02,-6.505220383405685425e-02,-5.093450844287872314e-02,-5.093450844287872314e-02,-3.633861988782882690e-02,-5.854794383049011230e-02,-5.854794383049011230e-02,-5.854794383049011230e-02,-4.397267848253250122e-02,-4.397267848253250122e-02,-4.397267848253250122e-02,-3.205154463648796082e-02,-3.205154463648796082e-02,-3.205154463648796082e-02,-2.224886603653430939e-02,-2.224886603653430939e-02,-4.015578702092170715e-02,-4.015578702092170715e-02,-3.064185939729213715e-02,-3.064185939729213715e-02,-3.064185939729213715e-02,-2.800765447318553925e-02,-2.800765447318553925e-02,-2.800765447318553925e-02,-4.673371464014053345e-02,-4.673371464014053345e-02,-4.495506361126899719e-02,-4.495506361126899719e-02,-4.495506361126899719e-02,-6.010283157229423523e-02,-6.010283157229423523e-02,-6.010283157229423523e-02,-7.654006034135818481e-02,-8.063661307096481323e-02,-8.063661307096481323e-02,-8.063661307096481323e-02,-8.063661307096481323e-02,-8.852647244930267334e-02,-8.852647244930267334e-02,-8.852647244930267334e-02,-8.852647244930267334e-02,-8.234464377164840698e-02,-8.234464377164840698e-02,-8.234464377164840698e-02,-8.538892865180969238e-02,-9.574891068041324615e-03,-9.574891068041324615e-03,2.543937601149082184e-02,2.543937601149082184e-02,-6.183454021811485291e-02,-6.183454021811485291e-02,-1.419905573129653931e-02,-1.419905573129653931e-02,7.582499086856842041e-02,7.582499086856842041e-02,1.694886982440948486e-01,1.694886982440948486e-01,1.694886982440948486e-01,2.228202968835830688e-01,2.228202968835830688e-01,2.228202968835830688e-01,2.534861564636230469e-01,2.534861564636230469e-01,2.534861564636230469e-01,2.746421694755554199e-01,2.498437762260437012e-01,2.498437762260437012e-01,2.498437762260437012e-01,2.498437762260437012e-01,2.904090881347656250e-01,2.904090881347656250e-01,2.904090881347656250e-01,2.904090881347656250e-01,3.103932738304138184e-01,3.103932738304138184e-01,3.103932738304138184e-01,3.103932738304138184e-01,3.076792657375335693e-01,3.076792657375335693e-01,3.076792657375335693e-01,3.071562051773071289e-01,3.028282225131988525e-01,3.028282225131988525e-01,3.028282225131988525e-01,2.990668416023254395e-01
-8.775618672370910645e-02,-8.498907089233398438e-02,-8.149204403162002563e-02,-8.149204403162002563e-02,-8.149204403162002563e-02,-8.202268928289413452e-02,-8.202268928289413452e-02,-8.202268928289413452e-02,-8.202268928289413452e-02,-8.017718791961669922e-02,-8.017718791961669922e-02,-8.017718791961669922e-02,-7.926914095878601074e-02,-7.926914095878601074e-02,-7.926914095878601074e-02,-7.776170969009399414e-02,-7.776170969009399414e-02,-7.568111270666122437e-02,-7.568111270666122437e-02,-7.557280361652374268e-02,-7.557280361652374268e-02,-7.146257162094116211e-02,-7.146257162094116211e-02,-7.146257162094116211e-02,-6.624474376440048218e-02,-6.624474376440048218e-02,-6.624474376440048218e-02,-6.624474376440048218e-02,-6.033144146203994751e-02,-6.033144146203994751e-02,-5.331625044345855713e-02,-5.331625044345855713e-02,-5.331625044345855713e-02,-4.525787755846977234e-02,-4.525787755846977234e-02,-3.598792478442192078e-02,-4.657740518450737000e-02,-4.657740518450737000e-02,-4.657740518450737000e-02,-3.741312399506568909e-02,-3.741312399506568909e-02,-3.741312399506568909e-02,-2.992699109017848969e-02,-2.992699109017848969e-02,-2.992699109017848969e-02,-2.314770407974720001e-02,-2.314770407974720001e-02,-3.475302830338478088e-02,-3.475302830338478088e-02,-2.748179435729980469e-02,-2.748179435729980469e-02,-2.748179435729980469e-02,-2.446905523538589478e-02,-2.446905523538589478e-02,-2.446905523538589478e-02,-3.788685426115989685e-02,-3.788685426115989685e-02,-3.717547655105590820e-02,-3.717547655105590820e-02,-3.717547655105590820e-02,-4.923424124717712402e-02,-4.923424124717712402e-02,-4.923424124717712402e-02,-6.559010595083236694e-02,-8.074770867824554443e-02,-8.074770867824554443e-02,-8.074770867824554443e-02,-8.074770867824554443e-02,-8.839812874794006348e-02,-8.839812874794006348e-02,-8.839812874794006348e-02,-8.839812874794006348e-02,-7.647324353456497192e-02,-7.647324353456497192e-02,-7.647324353456497192e-02,-7.670962810516357422e-02,2.987141348421573639e-02,2.987141348421573639e-02,7.281722873449325562e-02,7.281722873449325562e-02,-5.951314792037010193e-02,-5.951314792037010193e-02,8.823107928037643433e-03,8.823107928037643433e-03,1.346701532602310181e-01,1.346701532602310181e-01,2.223848700523376465e-01,2.223848700523376465e-01,2.223848700523376465e-01,2.737010121345520020e-01,2.737010121345520020e-01,2.737010121345520020e-01,3.037203252315521240e-01,3.037203252315521240e-01,3.037203252315521240e-01,3.145646452903747559e-01,2.946604490280151367e-01,2.946604490280151367e-01,2.946604490280151367e-01,2.946604490280151367e-01,3.153194785118103027e-01,3.153194785118103027e-01,3.153194785118103027e-01,3.153194785118103027e-01,3.198220729827880859e-01,3.198220729827880859e-01,3.198220729827880859e-01,3.198220729827880859e-01,3.189011216163635254e-01,3.189011216163635254e-01,3.189011216163635254e-01,3.129525184631347656e-01,3.123070597648620605e-01,3.123070597648620605e-01,3.123070597648620605e-01,3.119123280048370361e-01
-1.187473312020301819e-01,-1.243672892451286316e-01,-1.174917221069335938e-01,-1.174917221069335938e-01,-1.174917221069335938e-01,-1.239416450262069702e-01,-1.239416450262069702e-01,-1.239416450262069702e-01,-1.239416450262069702e-01,-1.238199099898338318e-01,-1.238199099898338318e-01,-1.238199099898338318e-01,-1.233748868107795715e-01,-1.233748868107795715e-01,-1.233748868107795715e-01,-1.176764145493507385e-01,-1.176764145493507385e-01,-1.123950481414794922e-01,-1.123950481414794922e-01,-1.123186722397804260e-01,-1.123186722397804260e-01,-1.050714403390884399e-01,-1.050714403390884399e-01,-1.050714403390884399e-01,-9.647061675786972046e-02,-9.647061675786972046e-02,-9.647061675786972046e-02,-9.647061675786972046e-02,-8.726856857538223267e-02,-8.726856857538223267e-02,-7.753761857748031616e-02,-7.753761857748031616e-02,-7.753761857748031616e-02,-6.804838776588439941e-02,-6.804838776588439941e-02,-5.762498453259468079e-02,-6.747660785913467407e-02,-6.747660785913467407e-02,-6.747660785913467407e-02,-5.581780150532722473e-02,-5.581780150532722473e-02,-5.581780150532722473e-02,-4.669421911239624023e-02,-4.669421911239624023e-02,-4.669421911239624023e-02,-3.905631974339485168e-02,-3.905631974339485168e-02,-5.060869827866554260e-02,-5.060869827866554260e-02,-4.212587326765060425e-02,-4.212587326765060425e-02,-4.212587326765060425e-02,-3.906344249844551086e-02,-3.906344249844551086e-02,-3.906344249844551086e-02,-5.394204705953598022e-02,-5.394204705953598022e-02,-5.407781153917312622e-02,-5.407781153917312622e-02,-5.407781153917312622e-02,-6.460466235876083374e-02,-6.460466235876083374e-02,-6.460466235876083374e-02,-7.665961235761642456e-02,-8.805073797702789307e-02,-8.805073797702789307e-02,-8.805073797702789307e-02,-8.805073797702789307e-02,-9.129709005355834961e-02,-9.129709005355834961e-02,-9.129709005355834961e-02,-9.129709005355834961e-02,-7.621307671070098877e-02,-7.621307671070098877e-02,-7.621307671070098877e-02,-8.030159771442413330e-02,3.796727955341339111e-02,3.796727955341339111e-02,1.005757302045822144e-01,1.005757302045822144e-01,-6.595627963542938232e-02,-6.595627963542938232e-02,1.180298719555139542e-02,1.180298719555139542e-02,1.622567772865295410e-01,1.622567772865295410e-01,2.550250887870788574e-01,2.550250887870788574e-01,2.550250887870788574e-01,3.073532879352569580e-01,3.073532879352569580e-01,3.073532879352569580e-01,3.356068134307861328e-01,3.356068134307861328e-01,3.356068134307861328e-01,3.415504395961761475e-01,3.281381726264953613e-01,3.281381726264953613e-01,3.281381726264953613e-01,3.281381726264953613e-01,3.404369950294494629e-01,3.404369950294494629e-01,3.404369950294494629e-01,3.404369950294494629e-01,3.366886377334594727e-01,3.366886377334594727e-01,3.366886377334594727e-01,3.366886377334594727e-01,3.340159058570861816e-01,3.340159058570861816e-01,3.340159058570861816e-01,3.275178074836730957e-01,3.299921154975891113e-01,3.299921154975891113e-01,3.299921154975891113e-01,3.337520062923431396e-01
-1.641484498977661133e-01,-1.646450310945510864e-01,-1.620450615882873535e-01,-1.620450615882873535e-01,-1.620450615882873535e-01,-1.600636690855026245e-01,-1.600636690855026245e-01,-1.600636690855026245e-01,-1.600636690855026245e-01,-1.556105911731719971e-01,-1.556105911731719971e-01,-1.556105911731719971e-01,-1.541221737861633301e-01,-1.541221737861633301e-01,-1.541221737861633301e-01,-1.513870358467102051e-01,-1.513870358467102051e-01,-1.485452502965927124e-01,-1.485452502965927124e-01,-1.494259834289550781e-01,-1.494259834289550781e-01,-1.435075402259826660e-01,-1.435075402259826660e-01,-1.435075402259826660e-01,-1.353468745946884155e-01,-1.353468745946884155e-01,-1.353468745946884155e-01,-1.353468745946884155e-01,-1.254464983940124512e-01,-1.254464983940124512e-01,-1.143429204821586609e-01,-1.143429204821586609e-01,-1.143429204821586609e-01,-1.031019017100334167e-01,-1.031019017100334167e-01,-9.248348325490951538e-02,-1.041557341814041138e-01,-1.041557341814041138e-01,-1.041557341814041138e-01,-9.075666218996047974e-02,-9.075666218996047974e-02,-9.075666218996047974e-02,-7.968431711196899414e-02,-7.968431711196899414e-02,-7.968431711196899414e-02,-7.080298662185668945e-02,-7.080298662185668945e-02,-8.535312861204147339e-02,-8.535312861204147339e-02,-7.472150772809982300e-02,-7.472150772809982300e-02,-7.472150772809982300e-02,-7.057490199804306030e-02,-7.057490199804306030e-02,-7.057490199804306030e-02,-9.074104577302932739e-02,-9.074104577302932739e-02,-8.823328465223312378e-02,-8.823328465223312378e-02,-8.823328465223312378e-02,-1.073055118322372437e-01,-1.073055118322372437e-01,-1.073055118322372437e-01,-1.273240298032760620e-01,-1.335902661085128784e-01,-1.335902661085128784e-01,-1.335902661085128784e-01,-1.335902661085128784e-01,-1.384604871273040771e-01,-1.384604871273040771e-01,-1.384604871273040771e-01,-1.384604871273040771e-01,-1.195126771926879883e-01,-1.195126771926879883e-01,-1.195126771926879883e-01,-1.243566274642944336e-01,5.339157767593860626e-03,5.339157767593860626e-03,7.241117954254150391e-02,7.241117954254150391e-02,-1.160517856478691101e-01,-1.160517856478691101e-01,-3.534270450472831726e-02,-3.534270450472831726e-02,1.357568502426147461e-01,1.357568502426147461e-01,2.436272352933883667e-01,2.436272352933883667e-01,2.436272352933883667e-01,3.093264102935791016e-01,3.093264102935791016e-01,3.093264102935791016e-01,3.446797430515289307e-01,3.446797430515289307e-01,3.446797430515289307e-01,3.564877212047576904e-01,3.350396752357482910e-01,3.350396752357482910e-01,3.350396752357482910e-01,3.350396752357482910e-01,3.521876633167266846e-01,3.521876633167266846e-01,3.521876633167266846e-01,3.521876633167266846e-01,3.460485935211181641e-01,3.460485935211181641e-01,3.460485935211181641e-01,3.460485935211181641e-01,3.424898684024810791e-01,3.424898684024810791e-01,3.424898684024810791e-01,3.320586979389190674e-01,3.370940387248992920e-01,3.370940387248992920e-01,3.370940387248992920e-01,3.430615663528442383e-01
-2.108061313629150391e-01,-2.137135714292526245e-01,-2.112304121255874634e-01,-2.112304121255874634e-01,-2.112304121255874634e-01,-2.144658416509628296e-01,-2.144658416509628296e-01,-2.144658416509628296e-01,-2.144658416509628296e-01,-2.164074033498764038e-01,-2.164074033498764038e-01,-2.164074033498764038e-01,-2.197180837392807007e-01,-2.197180837392807007e-01,-2.197180837392807007e-01,-2.169585078954696655e-01,-2.169585078954696655e-01,-2.132204622030258179e-01,-2.132204622030258179e-01,-2.139023691415786743e-01,-2.139023691415786743e-01,-2.068710029125213623e-01,-2.068710029125213623e-01,-2.068710029125213623e-01,-1.988864243030548096e-01,-1.988864243030548096e-01,-1.988864243030548096e-01,-1.988864243030548096e-01,-1.908907890319824219e-01,-1.908907890319824219e-01,-1.814589500427246094e-01,-1.814589500427246094e-01,-1.814589500427246094e-01,-1.714559495449066162e-01,-1.714559495449066162e-01,-1.621160507202148438e-01,-1.703673452138900757e-01,-1.703673452138900757e-01,-1.703673452138900757e-01,-1.597249209880828857e-01,-1.597249209880828857e-01,-1.597249209880828857e-01,-1.506811678409576416e-01,-1.506811678409576416e-01,-1.506811678409576416e-01,-1.442689597606658936e-01,-1.442689597606658936e-01,-1.527364403009414673e-01,-1.527364403009414673e-01,-1.456928998231887817e-01,-1.456928998231887817e-01,-1.456928998231887817e-01,-1.431777179241180420e-01,-1.431777179241180420e-01,-1.431777179241180420e-01,-1.522718369960784912e-01,-1.522718369960784912e-01,-1.511182487010955811e-01,-1.511182487010955811e-01,-1.511182487010955811e-01,-1.569170951843261719e-01,-1.569170951843261719e-01,-1.569170951843261719e-01,-1.631528884172439575e-01,-1.645547151565551758e-01,-1.645547151565551758e-01,-1.645547151565551758e-01,-1.645547151565551758e-01,-1.639976650476455688e-01,-1.639976650476455688e-01,-1.639976650476455688e-01,-1.639976650476455688e-01,-1.520256698131561279e-01,-1.520256698131561279e-01,-1.520256698131561279e-01,-1.601338088512420654e-01,-4.221320152282714844e-02,-4.221320152282714844e-02,3.843058273196220398e-02,3.843058273196220398e-02,-1.422889381647109985e-01,-1.422889381647109985e-01,-6.228328496217727661e-02,-6.228328496217727661e-02,1.094321757555007935e-01,1.094321757555007935e-01,2.433739453554153442e-01,2.433739453554153442e-01,2.433739453554153442e-01,3.224016427993774414e-01,3.224016427993774414e-01,3.224016427993774414e-01,3.634638786315917969e-01,3.634638786315917969e-01,3.634638786315917969e-01,3.780659437179565430e-01,3.498440980911254883e-01,3.498440980911254883e-01,3.498440980911254883e-01,3.498440980911254883e-01,3.739458024501800537e-01,3.739458024501800537e-01,3.739458024501800537e-01,3.739458024501800537e-01,3.658125102519989014e-01,3.658125102519989014e-01,3.658125102519989014e-01,3.658125102519989014e-01,3.586758077144622803e-01,3.586758077144622803e-01,3.586758077144622803e-01,3.470495939254760742e-01,3.513118624687194824e-01,3.513118624687194824e-01,3.513118624687194824e-01,3.569710254669189453e-01
-1.688822507858276367e-01,-1.819784343242645264e-01,-1.843537241220474243e-01,-1.843537241220474243e-01,-1.843537241220474243e-01,-1.960913091897964478e-01,-1.960913091897964478e-01,-1.960913091897964478e-01,-1.960913091897964478e-01,-2.113005816936492920e-01,-2.113005816936492920e-01,-2.113005816936492920e-01,-2.269246429204940796e-01,-2.269246429204940796e-01,-2.269246429204940796e-01,-2.269326448440551758e-01,-2.269326448440551758e-01,-2.251178324222564697e-01,-2.251178324222564697e-01,-2.311996221542358398e-01,-2.311996221542358398e-01,-2.264698445796966553e-01,-2.264698445796966553e-01,-2.264698445796966553e-01,-2.226355373859405518e-01,-2.226355373859405518e-01,-2.226355373859405518e-01,-2.226355373859405518e-01,-2.189457267522811890e-01,-2.189457267522811890e-01,-2.140463292598724365e-01,-2.140463292598724365e-01,-2.140463292598724365e-01,-2.083246558904647827e-01,-2.083246558904647827e-01,-2.021650373935699463e-01,-2.098026722669601440e-01,-2.098026722669601440e-01,-2.098026722669601440e-01,-2.022915780544281006e-01,-2.022915780544281006e-01,-2.022915780544281006e-01,-1.940252333879470825e-01,-1.940252333879470825e-01,-1.940252333879470825e-01,-1.867477595806121826e-01,-1.867477595806121826e-01,-1.937799900770187378e-01,-1.937799900770187378e-01,-1.862335950136184692e-01,-1.862335950136184692e-01,-1.862335950136184692e-01,-1.825194954872131348e-01,-1.825194954872131348e-01,-1.825194954872131348e-01,-1.920202672481536865e-01,-1.920202672481536865e-01,-1.888540685176849365e-01,-1.888540685176849365e-01,-1.888540685176849365e-01,-1.965677142143249512e-01,-1.965677142143249512e-01,-1.965677142143249512e-01,-2.053306996822357178e-01,-2.127700746059417725e-01,-2.127700746059417725e-01,-2.127700746059417725e-01,-2.127700746059417725e-01,-2.119558155536651611e-01,-2.119558155536651611e-01,-2.119558155536651611e-01,-2.119558155536651611e-01,-1.894254088401794434e-01,-1.894254088401794434e-01,-1.894254088401794434e-01,-1.980230063199996948e-01,-6.367273628711700439e-02,-6.367273628711700439e-02,3.250308707356452942e-02,3.250308707356452942e-02,-1.863196194171905518e-01,-1.863196194171905518e-01,-1.034870818257331848e-01,-1.034870818257331848e-01,1.059987843036651611e-01,1.059987843036651611e-01,2.479576468467712402e-01,2.479576468467712402e-01,2.479576468467712402e-01,3.359370231628417969e-01,3.359370231628417969e-01,3.359370231628417969e-01,3.768237531185150146e-01,3.768237531185150146e-01,3.768237531185150146e-01,3.831675052642822266e-01,3.658187985420227051e-01,3.658187985420227051e-01,3.658187985420227051e-01,3.658187985420227051e-01,3.807651996612548828e-01,3.807651996612548828e-01,3.807651996612548828e-01,3.807651996612548828e-01,3.694925010204315186e-01,3.694925010204315186e-01,3.694925010204315186e-01,3.694925010204315186e-01,3.664516210556030273e-01,3.664516210556030273e-01,3.664516210556030273e-01,3.588349521160125732e-01,3.617114126682281494e-01,3.617114126682281494e-01,3.617114126682281494e-01,3.662323057651519775e-01
-7.540871948003768921e-02,-8.353804796934127808e-02,-7.777808606624603271e-02,-7.777808606624603271e-02,-7.777808606624603271e-02,-8.814704418182373047e-02,-8.814704418182373047e-02,-8.814704418182373047e-02,-8.814704418182373047e-02,-9.935462474822998047e-02,-9.935462474822998047e-02,-9.935462474822998047e-02,-1.190207302570343018e-01,-1.190207302570343018e-01,-1.190207302570343018e-01,-1.195285618305206299e-01,-1.195285618305206299e-01,-1.209990829229354858e-01,-1.209990829229354858e-01,-1.321942806243896484e-01,-1.321942806243896484e-01,-1.347180455923080444e-01,-1.347180455923080444e-01,-1.347180455923080444e-01,-1.397389173507690430e-01,-1.397389173507690430e-01,-1.397389173507690430e-01,-1.397389173507690430e-01,-1.439451575279235840e-01,-1.439451575279235840e-01,-1.459740698337554932e-01,-1.459740698337554932e-01,-1.459740698337554932e-01,-1.465993225574493408e-01,-1.465993225574493408e-01,-1.463636308908462524e-01,-1.468108147382736206e-01,-1.468108147382736206e-01,-1.468108147382736206e-01,-1.461082845926284790e-01,-1.461082845926284790e-01,-1.461082845926284790e-01,-1.429963260889053345e-01,-1.429963260889053345e-01,-1.429963260889053345e-01,-1.397981643676757812e-01,-1.397981643676757812e-01,-1.405905932188034058e-01,-1.405905932188034058e-01,-1.382257044315338135e-01,-1.382257044315338135e-01,-1.382257044315338135e-01,-1.384999603033065796e-01,-1.384999603033065796e-01,-1.384999603033065796e-01,-1.394998431205749512e-01,-1.394998431205749512e-01,-1.442658007144927979e-01,-1.442658007144927979e-01,-1.442658007144927979e-01,-1.473632305860519409e-01,-1.473632305860519409e-01,-1.473632305860519409e-01,-1.525786966085433960e-01,-1.585988551378250122e-01,-1.585988551378250122e-01,-1.585988551378250122e-01,-1.585988551378250122e-01,-1.542735397815704346e-01,-1.542735397815704346e-01,-1.542735397815704346e-01,-1.542735397815704346e-01,-1.429092586040496826e-01,-1.429092586040496826e-01,-1.429092586040496826e-01,-1.443879753351211548e-01,-4.784588143229484558e-02,-4.784588143229484558e-02,2.619407139718532562e-02,2.619407139718532562e-02,-1.118294224143028259e-01,-1.118294224143028259e-01,-3.669486939907073975e-02,-3.669486939907073975e-02,9.551279991865158081e-02,9.551279991865158081e-02,2.268738448619842529e-01,2.268738448619842529e-01,2.268738448619842529e-01,3.025745153427124023e-01,3.025745153427124023e-01,3.025745153427124023e-01,3.355776071548461914e-01,3.355776071548461914e-01,3.355776071548461914e-01,3.576310575008392334e-01,3.387247025966644287e-01,3.387247025966644287e-01,3.387247025966644287e-01,3.387247025966644287e-01,3.791050612926483154e-01,3.791050612926483154e-01,3.791050612926483154e-01,3.791050612926483154e-01,3.989056646823883057e-01,3.989056646823883057e-01,3.989056646823883057e-01,3.989056646823883057e-01,3.900370895862579346e-01,3.900370895862579346e-01,3.900370895862579346e-01,3.821227550506591797e-01,3.836227655410766602e-01,3.836227655410766602e-01,3.836227655410766602e-01,3.871623277664184570e-01
-4.675183072686195374e-02,-5.042692646384239197e-02,-5.010228231549263000e-02,-5.010228231549263000e-02,-5.010228231549263000e-02,-5.354792997241020203e-02,-5.354792997241020203e-02,-5.354792997241020203e-02,-5.354792997241020203e-02,-5.918218195438385010e-02,-5.918218195438385010e-02,-5.918218195438385010e-02,-7.235120236873626709e-02,-7.235120236873626709e-02,-7.235120236873626709e-02,-7.238280773162841797e-02,-7.238280773162841797e-02,-7.170102745294570923e-02,-7.170102745294570923e-02,-8.261417597532272339e-02,-8.261417597532272339e-02,-8.216144889593124390e-02,-8.216144889593124390e-02,-8.216144889593124390e-02,-8.517835289239883423e-02,-8.517835289239883423e-02,-8.517835289239883423e-02,-8.517835289239883423e-02,-9.017649292945861816e-02,-9.017649292945861816e-02,-9.478761255741119385e-02,-9.478761255741119385e-02,-9.478761255741119385e-02,-9.860905259847640991e-02,-9.860905259847640991e-02,-1.015531420707702637e-01,-1.011587157845497131e-01,-1.011587157845497131e-01,-1.011587157845497131e-01,-1.041624099016189575e-01,-1.041624099016189575e-01,-1.041624099016189575e-01,-1.059168130159378052e-01,-1.059168130159378052e-01,-1.059168130159378052e-01,-1.062098518013954163e-01,-1.062098518013954163e-01,-1.079261973500251770e-01,-1.079261973500251770e-01,-1.068062633275985718e-01,-1.068062633275985718e-01,-1.068062633275985718e-01,-1.042487546801567078e-01,-1.042487546801567078e-01,-1.042487546801567078e-01,-1.059677228331565857e-01,-1.059677228331565857e-01,-1.045457199215888977e-01,-1.045457199215888977e-01,-1.045457199215888977e-01,-1.100646331906318665e-01,-1.100646331906318665e-01,-1.100646331906318665e-01,-1.205961331725120544e-01,-1.226247176527976990e-01,-1.226247176527976990e-01,-1.226247176527976990e-01,-1.226247176527976990e-01,-1.220354735851287842e-01,-1.220354735851287842e-01,-1.220354735851287842e-01,-1.220354735851287842e-01,-1.125132367014884949e-01,-1.125132367014884949e-01,-1.125132367014884949e-01,-1.136133149266242981e-01,-9.265992790460586548e-03,-9.265992790460586548e-03,5.122542381286621094e-02,5.122542381286621094e-02,-8.301466703414916992e-02,-8.301466703414916992e-02,-1.909180544316768646e-02,-1.909180544316768646e-02,1.106625273823738098e-01,1.106625273823738098e-01,2.319004088640213013e-01,2.319004088640213013e-01,2.319004088640213013e-01,3.130833208560943604e-01,3.130833208560943604e-01,3.130833208560943604e-01,3.503868579864501953e-01,3.503868579864501953e-01,3.503868579864501953e-01,3.781211972236633301e-01,3.522639870643615723e-01,3.522639870643615723e-01,3.522639870643615723e-01,3.522639870643615723e-01,4.053957462310791016e-01,4.053957462310791016e-01,4.053957462310791016e-01,4.053957462310791016e-01,4.366402924060821533e-01,4.366402924060821533e-01,4.366402924060821533e-01,4.366402924060821533e-01,4.320622682571411133e-01,4.320622682571411133e-01,4.320622682571411133e-01,4.202567040920257568e-01,4.236490726470947266e-01,4.236490726470947266e-01,4.236490726470947266e-01,4.291207790374755859e-01
-5.555908195674419403e-03,-2.090408094227313995e-02,-1.040679588913917542e-02,-1.040679588913917542e-02,-1.040679588913917542e-02,-2.686911262571811676e-02,-2.686911262571811676e-02,-2.686911262571811676e-02,-2.686911262571811676e-02,-3.622898831963539124e-02,-3.622898831963539124e-02,-3.622898831963539124e-02,-5.037380009889602661e-02,-5.037380009889602661e-02,-5.037380009889602661e-02,-4.738026484847068787e-02,-4.738026484847068787e-02,-4.378581792116165161e-02,-4.378581792116165161e-02,-5.793213844299316406e-02,-5.793213844299316406e-02,-5.046593397855758667e-02,-5.046593397855758667e-02,-5.046593397855758667e-02,-4.499653726816177368e-02,-4.499653726816177368e-02,-4.499653726816177368e-02,-4.499653726816177368e-02,-4.291632771492004395e-02,-4.291632771492004395e-02,-4.476210847496986389e-02,-4.476210847496986389e-02,-4.476210847496986389e-02,-4.965297505259513855e-02,-4.965297505259513855e-02,-5.611513182520866394e-02,-5.291617661714553833e-02,-5.291617661714553833e-02,-5.291617661714553833e-02,-5.828393250703811646e-02,-5.828393250703811646e-02,-5.828393250703811646e-02,-6.296753883361816406e-02,-6.296753883361816406e-02,-6.296753883361816406e-02,-6.654735654592514038e-02,-6.654735654592514038e-02,-6.651759892702102661e-02,-6.651759892702102661e-02,-7.106024026870727539e-02,-7.106024026870727539e-02,-7.106024026870727539e-02,-7.514982670545578003e-02,-7.514982670545578003e-02,-7.514982670545578003e-02,-7.600397616624832153e-02,-7.600397616624832153e-02,-7.816847413778305054e-02,-7.816847413778305054e-02,-7.816847413778305054e-02,-7.733898609876632690e-02,-7.733898609876632690e-02,-7.733898609876632690e-02,-8.271882683038711548e-02,-9.310865402221679688e-02,-9.310865402221679688e-02,-9.310865402221679688e-02,-9.310865402221679688e-02,-9.289926290512084961e-02,-9.289926290512084961e-02,-9.289926290512084961e-02,-9.289926290512084961e-02,-7.448764145374298096e-02,-7.448764145374298096e-02,-7.448764145374298096e-02,-7.473151385784149170e-02,6.918197125196456909e-02,6.918197125196456909e-02,1.462570428848266602e-01,1.462570428848266602e-01,-6.514563411474227905e-02,-6.514563411474227905e-02,2.260808274149894714e-02,2.260808274149894714e-02,2.215681225061416626e-01,2.215681225061416626e-01,3.602155447006225586e-01,3.602155447006225586e-01,3.602155447006225586e-01,4.448565542697906494e-01,4.448565542697906494e-01,4.448565542697906494e-01,4.841559529304504395e-01,4.841559529304504395e-01,4.841559529304504395e-01,5.009066462516784668e-01,4.796561896800994873e-01,4.796561896800994873e-01,4.796561896800994873e-01,4.796561896800994873e-01,4.926585257053375244e-01,4.926585257053375244e-01,4.926585257053375244e-01,4.926585257053375244e-01,4.861912727355957031e-01,4.861912727355957031e-01,4.861912727355957031e-01,4.861912727355957031e-01,4.856836497783660889e-01,4.856836497783660889e-01,4.856836497783660889e-01,4.801382124423980713e-01,4.827199876308441162e-01,4.827199876308441162e-01,4.827199876308441162e-01,4.865576028823852539e-01
-3.765096515417098999e-02,-5.117739737033843994e-02,-3.948025032877922058e-02,-3.948025032877922058e-02,-3.948025032877922058e-02,-5.271281674504280090e-02,-5.271281674504280090e-02,-5.271281674504280090e-02,-5.271281674504280090e-02,-5.767408013343811035e-02,-5.767408013343811035e-02,-5.767408013343811035e-02,-6.741138547658920288e-02,-6.741138547658920288e-02,-6.741138547658920288e-02,-6.340699642896652222e-02,-6.340699642896652222e-02,-5.557490885257720947e-02,-5.557490885257720947e-02,-6.948981434106826782e-02,-6.948981434106826782e-02,-5.839530006051063538e-02,-5.839530006051063538e-02,-5.839530006051063538e-02,-4.677869379520416260e-02,-4.677869379520416260e-02,-4.677869379520416260e-02,-4.677869379520416260e-02,-3.604138270020484924e-02,-3.604138270020484924e-02,-2.655583433806896210e-02,-2.655583433806896210e-02,-2.655583433806896210e-02,-2.026577480137348175e-02,-2.026577480137348175e-02,-1.871450059115886688e-02,-3.284883871674537659e-02,-3.284883871674537659e-02,-3.284883871674537659e-02,-3.138843923807144165e-02,-3.138843923807144165e-02,-3.138843923807144165e-02,-3.447888791561126709e-02,-3.447888791561126709e-02,-3.447888791561126709e-02,-4.043148085474967957e-02,-4.043148085474967957e-02,-4.750057682394981384e-02,-4.750057682394981384e-02,-5.533199757337570190e-02,-5.533199757337570190e-02,-5.533199757337570190e-02,-6.801471859216690063e-02,-6.801471859216690063e-02,-6.801471859216690063e-02,-7.000406086444854736e-02,-7.000406086444854736e-02,-8.389072865247726440e-02,-8.389072865247726440e-02,-8.389072865247726440e-02,-8.226727694272994995e-02,-8.226727694272994995e-02,-8.226727694272994995e-02,-9.615644812583923340e-02,-1.071039438247680664e-01,-1.071039438247680664e-01,-1.071039438247680664e-01,-1.071039438247680664e-01,-1.145038083195686340e-01,-1.145038083195686340e-01,-1.145038083195686340e-01,-1.145038083195686340e-01,-1.019331738352775574e-01,-1.019331738352775574e-01,-1.019331738352775574e-01,-1.056459322571754456e-01,8.572202175855636597e-03,8.572202175855636597e-03,7.604236155748367310e-02,7.604236155748367310e-02,-7.716698199510574341e-02,-7.716698199510574341e-02,3.662556642666459084e-03,3.662556642666459084e-03,1.390716284513473511e-01,1.390716284513473511e-01,2.862030565738677979e-01,2.862030565738677979e-01,2.862030565738677979e-01,3.848010301589965820e-01,3.848010301589965820e-01,3.848010301589965820e-01,4.270744621753692627e-01,4.270744621753692627e-01,4.270744621753692627e-01,4.499618113040924072e-01,4.180798828601837158e-01,4.180798828601837158e-01,4.180798828601837158e-01,4.180798828601837158e-01,4.598008394241333008e-01,4.598008394241333008e-01,4.598008394241333008e-01,4.598008394241333008e-01,4.784114062786102295e-01,4.784114062786102295e-01,4.784114062786102295e-01,4.784114062786102295e-01,4.807783067226409912e-01,4.807783067226409912e-01,4.807783067226409912e-01,4.804551601409912109e-01,4.798912703990936279e-01,4.798912703990936279e-01,4.798912703990936279e-01,4.803453087806701660e-01
-2.573042921721935272e-02,-2.668678946793079376e-02,-1.978330127894878387e-02,-1.978330127894878387e-02,-1.978330127894878387e-02,-2.223275043070316315e-02,-2.223275043070316315e-02,-2.223275043070316315e-02,-2.223275043070316315e-02,-2.543753385543823242e-02,-2.543753385543823242e-02,-2.543753385543823242e-02,-3.440747782588005066e-02,-3.440747782588005066e-02,-3.440747782588005066e-02,-2.981841191649436951e-02,-2.981841191649436951e-02,-2.175835147500038147e-02,-2.175835147500038147e-02,-3.070231340825557709e-02,-3.070231340825557709e-02,-1.988301239907741547e-02,-1.988301239907741547e-02,-1.988301239907741547e-02,-1.033172011375427246e-02,-1.033172011375427246e-02,-1.033172011375427246e-02,-1.033172011375427246e-02,-1.720004132948815823e-03,-1.720004132948815823e-03,6.329265888780355453e-03,6.329265888780355453e-03,6.329265888780355453e-03,1.260944455862045288e-02,1.260944455862045288e-02,1.542745623737573624e-02,1.316507998853921890e-02,1.316507998853921890e-02,1.316507998853921890e-02,1.755267940461635590e-02,1.755267940461635590e-02,1.755267940461635590e-02,2.029440924525260925e-02,2.029440924525260925e-02,2.029440924525260925e-02,2.287793718278408051e-02,2.287793718278408051e-02,1.620721258223056793e-02,1.620721258223056793e-02,1.320752780884504318e-02,1.320752780884504318e-02,1.320752780884504318e-02,-6.012995261698961258e-03,-6.012995261698961258e-03,-6.012995261698961258e-03,-6.756623275578022003e-03,-6.756623275578022003e-03,-3.005066514015197754e-02,-3.005066514015197754e-02,-3.005066514015197754e-02,-2.285027131438255310e-02,-2.285027131438255310e-02,-2.285027131438255310e-02,-3.919460996985435486e-02,-6.965000182390213013e-02,-6.965000182390213013e-02,-6.965000182390213013e-02,-6.965000182390213013e-02,-7.658089697360992432e-02,-7.658089697360992432e-02,-7.658089697360992432e-02,-7.658089697360992432e-02,-5.038155615329742432e-02,-5.038155615329742432e-02,-5.038155615329742432e-02,-5.122531577944755554e-02,9.603946655988693237e-02,9.603946655988693237e-02,1.649113744497299194e-01,1.649113744497299194e-01,-4.486887529492378235e-02,-4.486887529492378235e-02,3.701778501272201538e-02,3.701778501272201538e-02,2.333571314811706543e-01,2.333571314811706543e-01,3.573698997497558594e-01,3.573698997497558594e-01,3.573698997497558594e-01,4.343670904636383057e-01,4.343670904636383057e-01,4.343670904636383057e-01,4.745490252971649170e-01,4.745490252971649170e-01,4.745490252971649170e-01,4.895484149456024170e-01,4.609512090682983398e-01,4.609512090682983398e-01,4.609512090682983398e-01,4.609512090682983398e-01,4.719910919666290283e-01,4.719910919666290283e-01,4.719910919666290283e-01,4.719910919666290283e-01,4.630448818206787109e-01,4.630448818206787109e-01,4.630448818206787109e-01,4.630448818206787109e-01,4.679138362407684326e-01,4.679138362407684326e-01,4.679138362407684326e-01,4.694693386554718018e-01,4.681035578250885010e-01,4.681035578250885010e-01,4.681035578250885010e-01,4.668621122837066650e-01
-1.209244318306446075e-02,-1.058866269886493683e-02,-1.016288623213768005e-02,-1.016288623213768005e-02,-1.016288623213768005e-02,-1.138606574386358261e-02,-1.138606574386358261e-02,-1.138606574386358261e-02,-1.138606574386358261e-02,-1.644296385347843170e-02,-1.644296385347843170e-02,-1.644296385347843170e-02,-2.973194606602191925e-02,-2.973194606602191925e-02,-2.973194606602191925e-02,-2.989150397479534149e-02,-2.989150397479534149e-02,-2.660085633397102356e-02,-2.660085633397102356e-02,-3.571970388293266296e-02,-3.571970388293266296e-02,-3.008119016885757446e-02,-3.008119016885757446e-02,-3.008119016885757446e-02,-2.839392609894275665e-02,-2.839392609894275665e-02,-2.839392609894275665e-02,-2.839392609894275665e-02,-3.020461089909076691e-02,-3.020461089909076691e-02,-3.222240135073661804e-02,-3.222240135073661804e-02,-3.222240135073661804e-02,-3.384936228394508362e-02,-3.384936228394508362e-02,-3.600457310676574707e-02,-3.090469166636466980e-02,-3.090469166636466980e-02,-3.090469166636466980e-02,-3.094640187919139862e-02,-3.094640187919139862e-02,-3.094640187919139862e-02,-2.627069130539894104e-02,-2.627069130539894104e-02,-2.627069130539894104e-02,-2.883001230657100677e-02,-2.883001230657100677e-02,-2.943656407296657562e-02,-2.943656407296657562e-02,-3.549961000680923462e-02,-3.549961000680923462e-02,-3.549961000680923462e-02,-4.803756996989250183e-02,-4.803756996989250183e-02,-4.803756996989250183e-02,-4.044053331017494202e-02,-4.044053331017494202e-02,-7.385585457086563110e-02,-7.385585457086563110e-02,-7.385585457086563110e-02,-7.257840782403945923e-02,-7.257840782403945923e-02,-7.257840782403945923e-02,-7.830753922462463379e-02,-1.007585972547531128e-01,-1.007585972547531128e-01,-1.007585972547531128e-01,-1.007585972547531128e-01,-1.007513478398323059e-01,-1.007513478398323059e-01,-1.007513478398323059e-01,-1.007513478398323059e-01,-8.457867801189422607e-02,-8.457867801189422607e-02,-8.457867801189422607e-02,-8.332370966672897339e-02,3.398946672677993774e-02,3.398946672677993774e-02,1.081994920969009399e-01,1.081994920969009399e-01,-5.598070472478866577e-02,-5.598070472478866577e-02,3.142535686492919922e-02,3.142535686492919922e-02,1.849300861358642578e-01,1.849300861358642578e-01,2.967058718204498291e-01,2.967058718204498291e-01,2.967058718204498291e-01,3.564878702163696289e-01,3.564878702163696289e-01,3.564878702163696289e-01,3.846009075641632080e-01,3.846009075641632080e-01,3.846009075641632080e-01,3.937807679176330566e-01,3.771850168704986572e-01,3.771850168704986572e-01,3.771850168704986572e-01,3.771850168704986572e-01,3.929779231548309326e-01,3.929779231548309326e-01,3.929779231548309326e-01,3.929779231548309326e-01,3.945336937904357910e-01,3.945336937904357910e-01,3.945336937904357910e-01,3.945336937904357910e-01,3.992623984813690186e-01,3.992623984813690186e-01,3.992623984813690186e-01,4.036534130573272705e-01,4.003643691539764404e-01,4.003643691539764404e-01,4.003643691539764404e-01,3.971835970878601074e-01
-6.554465740919113159e-02,-6.570350378751754761e-02,-6.338763236999511719e-02,-6.338763236999511719e-02,-6.338763236999511719e-02,-6.262671202421188354e-02,-6.262671202421188354e-02,-6.262671202421188354e-02,-6.262671202421188354e-02,-6.186201050877571106e-02,-6.186201050877571106e-02,-6.186201050877571106e-02,-6.889728456735610962e-02,-6.889728456735610962e-02,-6.889728456735610962e-02,-6.811931729316711426e-02,-6.811931729316711426e-02,-6.829282641410827637e-02,-6.829282641410827637e-02,-7.530568540096282959e-02,-7.530568540096282959e-02,-7.246132194995880127e-02,-7.246132194995880127e-02,-7.246132194995880127e-02,-6.734637916088104248e-02,-6.734637916088104248e-02,-6.734637916088104248e-02,-6.734637916088104248e-02,-6.318115442991256714e-02,-6.318115442991256714e-02,-6.025094166398048401e-02,-6.025094166398048401e-02,-6.025094166398048401e-02,-5.964520573616027832e-02,-5.964520573616027832e-02,-6.159776821732521057e-02,-6.526601314544677734e-02,-6.526601314544677734e-02,-6.526601314544677734e-02,-6.518388539552688599e-02,-6.518388539552688599e-02,-6.518388539552688599e-02,-6.597520411014556885e-02,-6.597520411014556885e-02,-6.597520411014556885e-02,-6.539329141378402710e-02,-6.539329141378402710e-02,-6.840413063764572144e-02,-6.840413063764572144e-02,-6.471426784992218018e-02,-6.471426784992218018e-02,-6.471426784992218018e-02,-6.040467694401741028e-02,-6.040467694401741028e-02,-6.040467694401741028e-02,-6.606751680374145508e-02,-6.606751680374145508e-02,-6.732045114040374756e-02,-6.732045114040374756e-02,-6.732045114040374756e-02,-7.388073205947875977e-02,-7.388073205947875977e-02,-7.388073205947875977e-02,-8.496110141277313232e-02,-9.321142733097076416e-02,-9.321142733097076416e-02,-9.321142733097076416e-02,-9.321142733097076416e-02,-9.481416642665863037e-02,-9.481416642665863037e-02,-9.481416642665863037e-02,-9.481416642665863037e-02,-8.583778887987136841e-02,-8.583778887987136841e-02,-8.583778887987136841e-02,-8.789557963609695435e-02,1.063734758645296097e-02,1.063734758645296097e-02,5.676794797182083130e-02,5.676794797182083130e-02,-5.879193544387817383e-02,-5.879193544387817383e-02,5.015355069190263748e-03,5.015355069190263748e-03,1.125644370913505554e-01,1.125644370913505554e-01,2.252997905015945435e-01,2.252997905015945435e-01,2.252997905015945435e-01,2.907392382621765137e-01,2.907392382621765137e-01,2.907392382621765137e-01,3.269520699977874756e-01,3.269520699977874756e-01,3.269520699977874756e-01,3.436385095119476318e-01,3.183430433273315430e-01,3.183430433273315430e-01,3.183430433273315430e-01,3.183430433273315430e-01,3.467937111854553223e-01,3.467937111854553223e-01,3.467937111854553223e-01,3.467937111854553223e-01,3.531491160392761230e-01,3.531491160392761230e-01,3.531491160392761230e-01,3.531491160392761230e-01,3.568542599678039551e-01,3.568542599678039551e-01,3.568542599678039551e-01,3.574109077453613281e-01,3.570103645324707031e-01,3.570103645324707031e-01,3.570103645324707031e-01,3.568087816238403320e-01
-1.542487740516662598e-01,-1.569234877824783325e-01,-1.476919949054718018e-01,-1.476919949054718018e-01,-1.476919949054718018e-01,-1.532261818647384644e-01,-1.532261818647384644e-01,-1.532261818647384644e-01,-1.532261818647384644e-01,-1.522686779499053955e-01,-1.522686779499053955e-01,-1.522686779499053955e-01,-1.566912680864334106e-01,-1.566912680864334106e-01,-1.566912680864334106e-01,-1.499207466840744019e-01,-1.499207466840744019e-01,-1.428853422403335571e-01,-1.428853422403335571e-01,-1.479737758636474609e-01,-1.479737758636474609e-01,-1.395038962364196777e-01,-1.395038962364196777e-01,-1.395038962364196777e-01,-1.300022453069686890e-01,-1.300022453069686890e-01,-1.300022453069686890e-01,-1.300022453069686890e-01,-1.207798644900321960e-01,-1.207798644900321960e-01,-1.099498867988586426e-01,-1.099498867988586426e-01,-1.099498867988586426e-01,-9.842838346958160400e-02,-9.842838346958160400e-02,-8.901102095842361450e-02,-1.023875400424003601e-01,-1.023875400424003601e-01,-1.023875400424003601e-01,-9.234274178743362427e-02,-9.234274178743362427e-02,-9.234274178743362427e-02,-8.495983481407165527e-02,-8.495983481407165527e-02,-8.495983481407165527e-02,-8.107020705938339233e-02,-8.107020705938339233e-02,-8.917501568794250488e-02,-8.917501568794250488e-02,-8.420091867446899414e-02,-8.420091867446899414e-02,-8.420091867446899414e-02,-8.196175843477249146e-02,-8.196175843477249146e-02,-8.196175843477249146e-02,-9.345325827598571777e-02,-9.345325827598571777e-02,-9.315121918916702271e-02,-9.315121918916702271e-02,-9.315121918916702271e-02,-1.044108644127845764e-01,-1.044108644127845764e-01,-1.044108644127845764e-01,-1.163809373974800110e-01,-1.207094788551330566e-01,-1.207094788551330566e-01,-1.207094788551330566e-01,-1.207094788551330566e-01,-1.230124682188034058e-01,-1.230124682188034058e-01,-1.230124682188034058e-01,-1.230124682188034058e-01,-1.144986227154731750e-01,-1.144986227154731750e-01,-1.144986227154731750e-01,-1.169285550713539124e-01,-1.432331837713718414e-02,-1.432331837713718414e-02,2.218649908900260925e-02,2.218649908900260925e-02,-9.782101213932037354e-02,-9.782101213932037354e-02,-3.775403276085853577e-02,-3.775403276085853577e-02,6.763333827257156372e-02,6.763333827257156372e-02,1.748957633972167969e-01,1.748957633972167969e-01,1.748957633972167969e-01,2.396623045206069946e-01,2.396623045206069946e-01,2.396623045206069946e-01,2.780775725841522217e-01,2.780775725841522217e-01,2.780775725841522217e-01,3.003702461719512939e-01,2.698735594749450684e-01,2.698735594749450684e-01,2.698735594749450684e-01,2.698735594749450684e-01,3.133595883846282959e-01,3.133595883846282959e-01,3.133595883846282959e-01,3.133595883846282959e-01,3.318973481655120850e-01,3.318973481655120850e-01,3.318973481655120850e-01,3.318973481655120850e-01,3.295131027698516846e-01,3.295131027698516846e-01,3.295131027698516846e-01,3.254459202289581299e-01,3.264830708503723145e-01,3.264830708503723145e-01,3.264830708503723145e-01,3.267557919025421143e-01
-2.167330980300903320e-01,-2.220489233732223511e-01,-2.153980135917663574e-01,-2.153980135917663574e-01,-2.153980135917663574e-01,-2.211169600486755371e-01,-2.211169600486755371e-01,-2.211169600486755371e-01,-2.211169600486755371e-01,-2.202770262956619263e-01,-2.202770262956619263e-01,-2.202770262956619263e-01,-2.216823697090148926e-01,-2.216823697090148926e-01,-2.216823697090148926e-01,-2.169307321310043335e-01,-2.169307321310043335e-01,-2.116382420063018799e-01,-2.116382420063018799e-01,-2.161459326744079590e-01,-2.161459326744079590e-01,-2.078157216310501099e-01,-2.078157216310501099e-01,-2.078157216310501099e-01,-1.977803409099578857e-01,-1.977803409099578857e-01,-1.977803409099578857e-01,-1.977803409099578857e-01,-1.878563612699508667e-01,-1.878563612699508667e-01,-1.756229996681213379e-01,-1.756229996681213379e-01,-1.756229996681213379e-01,-1.622467339038848877e-01,-1.622467339038848877e-01,-1.482124328613281250e-01,-1.656648516654968262e-01,-1.656648516654968262e-01,-1.656648516654968262e-01,-1.493091732263565063e-01,-1.493091732263565063e-01,-1.493091732263565063e-01,-1.353236883878707886e-01,-1.353236883878707886e-01,-1.353236883878707886e-01,-1.255908310413360596e-01,-1.255908310413360596e-01,-1.439088433980941772e-01,-1.439088433980941772e-01,-1.325276345014572144e-01,-1.325276345014572144e-01,-1.325276345014572144e-01,-1.264699548482894897e-01,-1.264699548482894897e-01,-1.264699548482894897e-01,-1.488416641950607300e-01,-1.488416641950607300e-01,-1.446335464715957642e-01,-1.446335464715957642e-01,-1.446335464715957642e-01,-1.635853946208953857e-01,-1.635853946208953857e-01,-1.635853946208953857e-01,-1.844887137413024902e-01,-1.898906379938125610e-01,-1.898906379938125610e-01,-1.898906379938125610e-01,-1.898906379938125610e-01,-1.982198357582092285e-01,-1.982198357582092285e-01,-1.982198357582092285e-01,-1.982198357582092285e-01,-1.796305179595947266e-01,-1.796305179595947266e-01,-1.796305179595947266e-01,-1.865476369857788086e-01,-5.096083879470825195e-02,-5.096083879470825195e-02,1.697559095919132233e-02,1.697559095919132233e-02,-1.863194108009338379e-01,-1.863194108009338379e-01,-1.183675676584243774e-01,-1.183675676584243774e-01,7.364221662282943726e-02,7.364221662282943726e-02,2.006824165582656860e-01,2.006824165582656860e-01,2.006824165582656860e-01,2.861082851886749268e-01,2.861082851886749268e-01,2.861082851886749268e-01,3.305521905422210693e-01,3.305521905422210693e-01,3.305521905422210693e-01,3.482122421264648438e-01,3.158801794052124023e-01,3.158801794052124023e-01,3.158801794052124023e-01,3.158801794052124023e-01,3.410558998584747314e-01,3.410558998584747314e-01,3.410558998584747314e-01,3.410558998584747314e-01,3.338245153427124023e-01,3.338245153427124023e-01,3.338245153427124023e-01,3.338245153427124023e-01,3.303608596324920654e-01,3.303608596324920654e-01,3.303608596324920654e-01,3.259603083133697510e-01,3.260923326015472412e-01,3.260923326015472412e-01,3.260923326015472412e-01,3.275127410888671875e-01
-2.401923537254333496e-01,-2.481309920549392700e-01,-2.425769418478012085e-01,-2.425769418478012085e-01,-2.425769418478012085e-01,-2.505590021610260010e-01,-2.505590021610260010e-01,-2.505590021610260010e-01,-2.505590021610260010e-01,-2.525530457496643066e-01,-2.525530457496643066e-01,-2.525530457496643066e-01,-2.555978894233703613e-01,-2.555978894233703613e-01,-2.555978894233703613e-01,-2.518256306648254395e-01,-2.518256306648254395e-01,-2.481402605772018433e-01,-2.481402605772018433e-01,-2.520543336868286133e-01,-2.520543336868286133e-01,-2.448767423629760742e-01,-2.448767423629760742e-01,-2.448767423629760742e-01,-2.369784116744995117e-01,-2.369784116744995117e-01,-2.369784116744995117e-01,-2.369784116744995117e-01,-2.292177379131317139e-01,-2.292177379131317139e-01,-2.177260518074035645e-01,-2.177260518074035645e-01,-2.177260518074035645e-01,-2.055283039808273315e-01,-2.055283039808273315e-01,-1.941388696432113647e-01,-2.093076854944229126e-01,-2.093076854944229126e-01,-2.093076854944229126e-01,-1.969837844371795654e-01,-1.969837844371795654e-01,-1.969837844371795654e-01,-1.859295517206192017e-01,-1.859295517206192017e-01,-1.859295517206192017e-01,-1.752889752388000488e-01,-1.752889752388000488e-01,-1.876886039972305298e-01,-1.876886039972305298e-01,-1.755938678979873657e-01,-1.755938678979873657e-01,-1.755938678979873657e-01,-1.705629378557205200e-01,-1.705629378557205200e-01,-1.705629378557205200e-01,-1.868685334920883179e-01,-1.868685334920883179e-01,-1.833337992429733276e-01,-1.833337992429733276e-01,-1.833337992429733276e-01,-1.968014240264892578e-01,-1.968014240264892578e-01,-1.968014240264892578e-01,-2.084217965602874756e-01,-2.088088840246200562e-01,-2.088088840246200562e-01,-2.088088840246200562e-01,-2.088088840246200562e-01,-2.075227051973342896e-01,-2.075227051973342896e-01,-2.075227051973342896e-01,-2.075227051973342896e-01,-1.919431388378143311e-01,-1.919431388378143311e-01,-1.919431388378143311e-01,-2.005814611911773682e-01,-6.394296139478683472e-02,-6.394296139478683472e-02,1.822865009307861328e-02,1.822865009307861328e-02,-1.891260296106338501e-01,-1.891260296106338501e-01,-1.133149489760398865e-01,-1.133149489760398865e-01,8.295192569494247437e-02,8.295192569494247437e-02,2.169337421655654907e-01,2.169337421655654907e-01,2.169337421655654907e-01,3.028008937835693359e-01,3.028008937835693359e-01,3.028008937835693359e-01,3.436416983604431152e-01,3.436416983604431152e-01,3.436416983604431152e-01,3.576229810714721680e-01,3.322049677371978760e-01,3.322049677371978760e-01,3.322049677371978760e-01,3.322049677371978760e-01,3.565323948860168457e-01,3.565323948860168457e-01,3.565323948860168457e-01,3.565323948860168457e-01,3.547296524047851562e-01,3.547296524047851562e-01,3.547296524047851562e-01,3.547296524047851562e-01,3.507338464260101318e-01,3.507338464260101318e-01,3.507338464260101318e-01,3.454583287239074707e-01,3.482033908367156982e-01,3.482033908367156982e-01,3.482033908367156982e-01,3.523653447628021240e-01
-2.110991626977920532e-01,-2.158396989107131958e-01,-2.131127119064331055e-01,-2.131127119064331055e-01,-2.131127119064331055e-01,-2.173869162797927856e-01,-2.173869162797927856e-01,-2.173869162797927856e-01,-2.173869162797927856e-01,-2.188833653926849365e-01,-2.188833653926849365e-01,-2.188833653926849365e-01,-2.217271625995635986e-01,-2.217271625995635986e-01,-2.217271625995635986e-01,-2.197856009006500244e-01,-2.197856009006500244e-01,-2.181468009948730469e-01,-2.181468009948730469e-01,-2.212743312120437622e-01,-2.212743312120437622e-01,-2.173069864511489868e-01,-2.173069864511489868e-01,-2.173069864511489868e-01,-2.116560190916061401e-01,-2.116560190916061401e-01,-2.116560190916061401e-01,-2.116560190916061401e-01,-2.054166942834854126e-01,-2.054166942834854126e-01,-1.976582854986190796e-01,-1.976582854986190796e-01,-1.976582854986190796e-01,-1.896582394838333130e-01,-1.896582394838333130e-01,-1.816377490758895874e-01,-1.924780607223510742e-01,-1.924780607223510742e-01,-1.924780607223510742e-01,-1.824047714471817017e-01,-1.824047714471817017e-01,-1.824047714471817017e-01,-1.742404848337173462e-01,-1.742404848337173462e-01,-1.742404848337173462e-01,-1.669603586196899414e-01,-1.669603586196899414e-01,-1.755993068218231201e-01,-1.755993068218231201e-01,-1.671596020460128784e-01,-1.671596020460128784e-01,-1.671596020460128784e-01,-1.627638936042785645e-01,-1.627638936042785645e-01,-1.627638936042785645e-01,-1.745853573083877563e-01,-1.745853573083877563e-01,-1.716165244579315186e-01,-1.716165244579315186e-01,-1.716165244579315186e-01,-1.824335902929306030e-01,-1.824335902929306030e-01,-1.824335902929306030e-01,-1.946893632411956787e-01,-1.948543488979339600e-01,-1.948543488979339600e-01,-1.948543488979339600e-01,-1.948543488979339600e-01,-1.965085864067077637e-01,-1.965085864067077637e-01,-1.965085864067077637e-01,-1.965085864067077637e-01,-1.774271726608276367e-01,-1.774271726608276367e-01,-1.774271726608276367e-01,-1.831776499748229980e-01,-5.610761046409606934e-02,-5.610761046409606934e-02,3.098577074706554413e-02,3.098577074706554413e-02,-1.694184094667434692e-01,-1.694184094667434692e-01,-8.852399885654449463e-02,-8.852399885654449463e-02,1.060366556048393250e-01,1.060366556048393250e-01,2.421501576900482178e-01,2.421501576900482178e-01,2.421501576900482178e-01,3.258437514305114746e-01,3.258437514305114746e-01,3.258437514305114746e-01,3.634507060050964355e-01,3.634507060050964355e-01,3.634507060050964355e-01,3.699585199356079102e-01,3.527230322360992432e-01,3.527230322360992432e-01,3.527230322360992432e-01,3.527230322360992432e-01,3.698824942111968994e-01,3.698824942111968994e-01,3.698824942111968994e-01,3.698824942111968994e-01,3.629068434238433838e-01,3.629068434238433838e-01,3.629068434238433838e-01,3.629068434238433838e-01,3.577485680580139160e-01,3.577485680580139160e-01,3.577485680580139160e-01,3.512324690818786621e-01,3.551187217235565186e-01,3.551187217235565186e-01,3.551187217235565186e-01,3.596179783344268799e-01
-2.065677493810653687e-01,-2.013764232397079468e-01,-2.069851905107498169e-01,-2.069851905107498169e-01,-2.069851905107498169e-01,-2.014534175395965576e-01,-2.014534175395965576e-01,-2.014534175395965576e-01,-2.014534175395965576e-01,-1.992207765579223633e-01,-1.992207765579223633e-01,-1.992207765579223633e-01,-1.955167502164840698e-01,-1.955167502164840698e-01,-1.955167502164840698e-01,-1.951294839382171631e-01,-1.951294839382171631e-01,-1.974990069866180420e-01,-1.974990069866180420e-01,-1.943228989839553833e-01,-1.943228989839553833e-01,-1.969339847564697266e-01,-1.969339847564697266e-01,-1.969339847564697266e-01,-1.995502710342407227e-01,-1.995502710342407227e-01,-1.995502710342407227e-01,-1.995502710342407227e-01,-2.010056525468826294e-01,-2.010056525468826294e-01,-2.010025382041931152e-01,-2.010025382041931152e-01,-2.010025382041931152e-01,-1.997159719467163086e-01,-1.997159719467163086e-01,-1.980790793895721436e-01,-1.967179626226425171e-01,-1.967179626226425171e-01,-1.967179626226425171e-01,-1.946386098861694336e-01,-1.946386098861694336e-01,-1.946386098861694336e-01,-1.918982863426208496e-01,-1.918982863426208496e-01,-1.918982863426208496e-01,-1.896265149116516113e-01,-1.896265149116516113e-01,-1.902505159378051758e-01,-1.902505159378051758e-01,-1.877444386482238770e-01,-1.877444386482238770e-01,-1.877444386482238770e-01,-1.856459677219390869e-01,-1.856459677219390869e-01,-1.856459677219390869e-01,-1.882463991641998291e-01,-1.882463991641998291e-01,-1.894925832748413086e-01,-1.894925832748413086e-01,-1.894925832748413086e-01,-1.941896826028823853e-01,-1.941896826028823853e-01,-1.941896826028823853e-01,-2.008289098739624023e-01,-2.037680000066757202e-01,-2.037680000066757202e-01,-2.037680000066757202e-01,-2.037680000066757202e-01,-2.024761736392974854e-01,-2.024761736392974854e-01,-2.024761736392974854e-01,-2.024761736392974854e-01,-1.919380277395248413e-01,-1.919380277395248413e-01,-1.919380277395248413e-01,-1.916148066520690918e-01,-9.193273633718490601e-02,-9.193273633718490601e-02,-1.550885289907455444e-02,-1.550885289907455444e-02,-1.606560200452804565e-01,-1.606560200452804565e-01,-8.130146563053131104e-02,-8.130146563053131104e-02,5.323710292577743530e-02,5.323710292577743530e-02,1.954004615545272827e-01,1.954004615545272827e-01,1.954004615545272827e-01,2.818953394889831543e-01,2.818953394889831543e-01,2.818953394889831543e-01,3.168936371803283691e-01,3.168936371803283691e-01,3.168936371803283691e-01,3.402391672134399414e-01,3.148303031921386719e-01,3.148303031921386719e-01,3.148303031921386719e-01,3.148303031921386719e-01,3.655490577220916748e-01,3.655490577220916748e-01,3.655490577220916748e-01,3.655490577220916748e-01,4.005964100360870361e-01,4.005964100360870361e-01,4.005964100360870361e-01,4.005964100360870361e-01,3.898871243000030518e-01,3.898871243000030518e-01,3.898871243000030518e-01,3.708022534847259521e-01,3.743278980255126953e-01,3.743278980255126953e-01,3.743278980255126953e-01,3.796834945678710938e-01
-1.612405180931091309e-01,-1.578012704849243164e-01,-1.627859920263290405e-01,-1.627859920263290405e-01,-1.627859920263290405e-01,-1.576944291591644287e-01,-1.576944291591644287e-01,-1.576944291591644287e-01,-1.576944291591644287e-01,-1.568785458803176880e-01,-1.568785458803176880e-01,-1.568785458803176880e-01,-1.584068983793258667e-01,-1.584068983793258667e-01,-1.584068983793258667e-01,-1.601739674806594849e-01,-1.601739674806594849e-01,-1.616168320178985596e-01,-1.616168320178985596e-01,-1.642571985721588135e-01,-1.642571985721588135e-01,-1.635769158601760864e-01,-1.635769158601760864e-01,-1.635769158601760864e-01,-1.643807440996170044e-01,-1.643807440996170044e-01,-1.643807440996170044e-01,-1.643807440996170044e-01,-1.655725091695785522e-01,-1.655725091695785522e-01,-1.657176017761230469e-01,-1.657176017761230469e-01,-1.657176017761230469e-01,-1.650031656026840210e-01,-1.650031656026840210e-01,-1.639696657657623291e-01,-1.630944907665252686e-01,-1.630944907665252686e-01,-1.630944907665252686e-01,-1.615581512451171875e-01,-1.615581512451171875e-01,-1.615581512451171875e-01,-1.596070677042007446e-01,-1.596070677042007446e-01,-1.596070677042007446e-01,-1.580260843038558960e-01,-1.580260843038558960e-01,-1.582712829113006592e-01,-1.582712829113006592e-01,-1.559728980064392090e-01,-1.559728980064392090e-01,-1.559728980064392090e-01,-1.539475619792938232e-01,-1.539475619792938232e-01,-1.539475619792938232e-01,-1.567582339048385620e-01,-1.567582339048385620e-01,-1.580890417098999023e-01,-1.580890417098999023e-01,-1.580890417098999023e-01,-1.636866182088851929e-01,-1.636866182088851929e-01,-1.636866182088851929e-01,-1.741725355386734009e-01,-1.791941225528717041e-01,-1.791941225528717041e-01,-1.791941225528717041e-01,-1.791941225528717041e-01,-1.787253618240356445e-01,-1.787253618240356445e-01,-1.787253618240356445e-01,-1.787253618240356445e-01,-1.674617528915405273e-01,-1.674617528915405273e-01,-1.674617528915405273e-01,-1.715941280126571655e-01,-6.684337556362152100e-02,-6.684337556362152100e-02,2.583784982562065125e-03,2.583784982562065125e-03,-1.367679834365844727e-01,-1.367679834365844727e-01,-6.020220741629600525e-02,-6.020220741629600525e-02,7.017700374126434326e-02,7.017700374126434326e-02,1.958462148904800415e-01,1.958462148904800415e-01,1.958462148904800415e-01,2.741487622261047363e-01,2.741487622261047363e-01,2.741487622261047363e-01,3.084161579608917236e-01,3.084161579608917236e-01,3.084161579608917236e-01,3.332046568393707275e-01,3.109837174415588379e-01,3.109837174415588379e-01,3.109837174415588379e-01,3.109837174415588379e-01,3.597317636013031006e-01,3.597317636013031006e-01,3.597317636013031006e-01,3.597317636013031006e-01,3.903602957725524902e-01,3.903602957725524902e-01,3.903602957725524902e-01,3.903602957725524902e-01,3.817488849163055420e-01,3.817488849163055420e-01,3.817488849163055420e-01,3.691202104091644287e-01,3.712956905364990234e-01,3.712956905364990234e-01,3.712956905364990234e-01,3.749911189079284668e-01
-1.194443181157112122e-01,-1.125034242868423462e-01,-1.192822828888893127e-01,-1.192822828888893127e-01,-1.192822828888893127e-01,-1.103527992963790894e-01,-1.103527992963790894e-01,-1.103527992963790894e-01,-1.103527992963790894e-01,-1.067409217357635498e-01,-1.067409217357635498e-01,-1.067409217357635498e-01,-1.069878637790679932e-01,-1.069878637790679932e-01,-1.069878637790679932e-01,-1.110376045107841492e-01,-1.110376045107841492e-01,-1.146180257201194763e-01,-1.146180257201194763e-01,-1.158574819564819336e-01,-1.158574819564819336e-01,-1.170087009668350220e-01,-1.170087009668350220e-01,-1.170087009668350220e-01,-1.193978115916252136e-01,-1.193978115916252136e-01,-1.193978115916252136e-01,-1.193978115916252136e-01,-1.216818988323211670e-01,-1.216818988323211670e-01,-1.226265877485275269e-01,-1.226265877485275269e-01,-1.226265877485275269e-01,-1.219518408179283142e-01,-1.219518408179283142e-01,-1.206311434507369995e-01,-1.210581064224243164e-01,-1.210581064224243164e-01,-1.210581064224243164e-01,-1.196761280298233032e-01,-1.196761280298233032e-01,-1.196761280298233032e-01,-1.176633685827255249e-01,-1.176633685827255249e-01,-1.176633685827255249e-01,-1.154787018895149231e-01,-1.154787018895149231e-01,-1.174911111593246460e-01,-1.174911111593246460e-01,-1.154424473643302917e-01,-1.154424473643302917e-01,-1.154424473643302917e-01,-1.163846924901008606e-01,-1.163846924901008606e-01,-1.163846924901008606e-01,-1.217920705676078796e-01,-1.217920705676078796e-01,-1.289887726306915283e-01,-1.289887726306915283e-01,-1.289887726306915283e-01,-1.323578953742980957e-01,-1.323578953742980957e-01,-1.323578953742980957e-01,-1.445157229900360107e-01,-1.576084941625595093e-01,-1.576084941625595093e-01,-1.576084941625595093e-01,-1.576084941625595093e-01,-1.604324281215667725e-01,-1.604324281215667725e-01,-1.604324281215667725e-01,-1.604324281215667725e-01,-1.401366889476776123e-01,-1.401366889476776123e-01,-1.401366889476776123e-01,-1.469435393810272217e-01,-1.186860608868300915e-03,-1.186860608868300915e-03,6.463135778903961182e-02,6.463135778903961182e-02,-1.239289194345474243e-01,-1.239289194345474243e-01,-4.114466160535812378e-02,-4.114466160535812378e-02,1.309438645839691162e-01,1.309438645839691162e-01,2.548853158950805664e-01,2.548853158950805664e-01,2.548853158950805664e-01,3.348298370838165283e-01,3.348298370838165283e-01,3.348298370838165283e-01,3.684146404266357422e-01,3.684146404266357422e-01,3.684146404266357422e-01,3.843283057212829590e-01,3.655247688293457031e-01,3.655247688293457031e-01,3.655247688293457031e-01,3.655247688293457031e-01,3.997685313224792480e-01,3.997685313224792480e-01,3.997685313224792480e-01,3.997685313224792480e-01,4.238512217998504639e-01,4.238512217998504639e-01,4.238512217998504639e-01,4.238512217998504639e-01,4.250738024711608887e-01,4.250738024711608887e-01,4.250738024711608887e-01,4.194127917289733887e-01,4.201173186302185059e-01,4.201173186302185059e-01,4.201173186302185059e-01,4.210480749607086182e-01
-3.228665888309478760e-02,-3.609610348939895630e-02,-4.096221551299095154e-02,-4.096221551299095154e-02,-4.096221551299095154e-02,-4.380583018064498901e-02,-4.380583018064498901e-02,-4.380583018064498901e-02,-4.380583018064498901e-02,-4.999694600701332092e-02,-4.999694600701332092e-02,-4.999694600701332092e-02,-5.964138358831405640e-02,-5.964138358831405640e-02,-5.964138358831405640e-02,-5.989590287208557129e-02,-5.989590287208557129e-02,-5.909036472439765930e-02,-5.909036472439765930e-02,-6.639948487281799316e-02,-6.639948487281799316e-02,-6.264603137969970703e-02,-6.264603137969970703e-02,-6.264603137969970703e-02,-6.033780053257942200e-02,-6.033780053257942200e-02,-6.033780053257942200e-02,-6.033780053257942200e-02,-5.870737507939338684e-02,-5.870737507939338684e-02,-5.645665153861045837e-02,-5.645665153861045837e-02,-5.645665153861045837e-02,-5.371328815817832947e-02,-5.371328815817832947e-02,-5.075587704777717590e-02,-5.511593446135520935e-02,-5.511593446135520935e-02,-5.511593446135520935e-02,-5.195182561874389648e-02,-5.195182561874389648e-02,-5.195182561874389648e-02,-4.866261407732963562e-02,-4.866261407732963562e-02,-4.866261407732963562e-02,-4.586344584822654724e-02,-4.586344584822654724e-02,-5.202832072973251343e-02,-5.202832072973251343e-02,-4.890507832169532776e-02,-4.890507832169532776e-02,-4.890507832169532776e-02,-4.838847368955612183e-02,-4.838847368955612183e-02,-4.838847368955612183e-02,-5.483358725905418396e-02,-5.483358725905418396e-02,-6.086451187729835510e-02,-6.086451187729835510e-02,-6.086451187729835510e-02,-5.955746024847030640e-02,-5.955746024847030640e-02,-5.955746024847030640e-02,-6.647650897502899170e-02,-8.485621958971023560e-02,-8.485621958971023560e-02,-8.485621958971023560e-02,-8.485621958971023560e-02,-8.989050239324569702e-02,-8.989050239324569702e-02,-8.989050239324569702e-02,-8.989050239324569702e-02,-6.275848299264907837e-02,-6.275848299264907837e-02,-6.275848299264907837e-02,-6.664639711380004883e-02,9.489796310663223267e-02,9.489796310663223267e-02,1.692884713411331177e-01,1.692884713411331177e-01,-6.665476411581039429e-02,-6.665476411581039429e-02,2.048199996352195740e-02,2.048199996352195740e-02,2.423900365829467773e-01,2.423900365829467773e-01,3.659464716911315918e-01,3.659464716911315918e-01,3.659464716911315918e-01,4.431849420070648193e-01,4.431849420070648193e-01,4.431849420070648193e-01,4.828472733497619629e-01,4.828472733497619629e-01,4.828472733497619629e-01,5.007126927375793457e-01,4.828206896781921387e-01,4.828206896781921387e-01,4.828206896781921387e-01,4.828206896781921387e-01,4.993133842945098877e-01,4.993133842945098877e-01,4.993133842945098877e-01,4.993133842945098877e-01,5.003474354743957520e-01,5.003474354743957520e-01,5.003474354743957520e-01,5.003474354743957520e-01,5.080422163009643555e-01,5.080422163009643555e-01,5.080422163009643555e-01,5.108692646026611328e-01,5.114994049072265625e-01,5.114994049072265625e-01,5.114994049072265625e-01,5.130121111869812012e-01
-1.720720715820789337e-02,-2.517125196754932404e-02,-2.226456254720687866e-02,-2.226456254720687866e-02,-2.226456254720687866e-02,-2.924715168774127960e-02,-2.924715168774127960e-02,-2.924715168774127960e-02,-2.924715168774127960e-02,-3.676286339759826660e-02,-3.676286339759826660e-02,-3.676286339759826660e-02,-4.996290802955627441e-02,-4.996290802955627441e-02,-4.996290802955627441e-02,-4.840060696005821228e-02,-4.840060696005821228e-02,-4.664562642574310303e-02,-4.664562642574310303e-02,-5.663992464542388916e-02,-5.663992464542388916e-02,-5.264305695891380310e-02,-5.264305695891380310e-02,-5.264305695891380310e-02,-5.104247853159904480e-02,-5.104247853159904480e-02,-5.104247853159904480e-02,-5.104247853159904480e-02,-5.157505720853805542e-02,-5.157505720853805542e-02,-5.309332907199859619e-02,-5.309332907199859619e-02,-5.309332907199859619e-02,-5.483798682689666748e-02,-5.483798682689666748e-02,-5.632841959595680237e-02,-5.458269640803337097e-02,-5.458269640803337097e-02,-5.458269640803337097e-02,-5.625195801258087158e-02,-5.625195801258087158e-02,-5.625195801258087158e-02,-5.608644708991050720e-02,-5.608644708991050720e-02,-5.608644708991050720e-02,-5.465884879231452942e-02,-5.465884879231452942e-02,-5.751444026827812195e-02,-5.751444026827812195e-02,-5.676824599504470825e-02,-5.676824599504470825e-02,-5.676824599504470825e-02,-5.869277939200401306e-02,-5.869277939200401306e-02,-5.869277939200401306e-02,-6.152769178152084351e-02,-6.152769178152084351e-02,-6.819143891334533691e-02,-6.819143891334533691e-02,-6.819143891334533691e-02,-6.705157458782196045e-02,-6.705157458782196045e-02,-6.705157458782196045e-02,-7.110093533992767334e-02,-8.661296218633651733e-02,-8.661296218633651733e-02,-8.661296218633651733e-02,-8.661296218633651733e-02,-8.487945795059204102e-02,-8.487945795059204102e-02,-8.487945795059204102e-02,-8.487945795059204102e-02,-6.337238103151321411e-02,-6.337238103151321411e-02,-6.337238103151321411e-02,-6.805832684040069580e-02,6.880482286214828491e-02,6.880482286214828491e-02,1.411397457122802734e-01,1.411397457122802734e-01,-5.026954784989356995e-02,-5.026954784989356995e-02,4.231402277946472168e-02,4.231402277946472168e-02,2.188540548086166382e-01,2.188540548086166382e-01,3.454146981239318848e-01,3.454146981239318848e-01,3.454146981239318848e-01,4.189732372760772705e-01,4.189732372760772705e-01,4.189732372760772705e-01,4.570161998271942139e-01,4.570161998271942139e-01,4.570161998271942139e-01,4.758513569831848145e-01,4.544796347618103027e-01,4.544796347618103027e-01,4.544796347618103027e-01,4.544796347618103027e-01,4.817369878292083740e-01,4.817369878292083740e-01,4.817369878292083740e-01,4.817369878292083740e-01,4.920241534709930420e-01,4.920241534709930420e-01,4.920241534709930420e-01,4.920241534709930420e-01,4.998174607753753662e-01,4.998174607753753662e-01,4.998174607753753662e-01,5.055097341537475586e-01,5.059838891029357910e-01,5.059838891029357910e-01,5.059838891029357910e-01,5.069437026977539062e-01
-5.548337474465370178e-02,-6.371417641639709473e-02,-5.729690194129943848e-02,-5.729690194129943848e-02,-5.729690194129943848e-02,-6.575597077608108521e-02,-6.575597077608108521e-02,-6.575597077608108521e-02,-6.575597077608108521e-02,-7.089523971080780029e-02,-7.089523971080780029e-02,-7.089523971080780029e-02,-8.150053769350051880e-02,-8.150053769350051880e-02,-8.150053769350051880e-02,-7.715343683958053589e-02,-7.715343683958053589e-02,-7.052052021026611328e-02,-7.052052021026611328e-02,-8.066016435623168945e-02,-8.066016435623168945e-02,-7.308851182460784912e-02,-7.308851182460784912e-02,-7.308851182460784912e-02,-6.804566085338592529e-02,-6.804566085338592529e-02,-6.804566085338592529e-02,-6.804566085338592529e-02,-6.612306088209152222e-02,-6.612306088209152222e-02,-6.625074148178100586e-02,-6.625074148178100586e-02,-6.625074148178100586e-02,-6.823676824569702148e-02,-6.823676824569702148e-02,-7.246928662061691284e-02,-7.155553251504898071e-02,-7.155553251504898071e-02,-7.155553251504898071e-02,-7.552550733089447021e-02,-7.552550733089447021e-02,-7.552550733089447021e-02,-7.998805493116378784e-02,-7.998805493116378784e-02,-7.998805493116378784e-02,-8.361072838306427002e-02,-8.361072838306427002e-02,-8.369839936494827271e-02,-8.369839936494827271e-02,-8.684445172548294067e-02,-8.684445172548294067e-02,-8.684445172548294067e-02,-9.180237352848052979e-02,-9.180237352848052979e-02,-9.180237352848052979e-02,-9.387201815843582153e-02,-9.387201815843582153e-02,-1.020507141947746277e-01,-1.020507141947746277e-01,-1.020507141947746277e-01,-1.045774295926094055e-01,-1.045774295926094055e-01,-1.045774295926094055e-01,-1.116364225745201111e-01,-1.233359500765800476e-01,-1.233359500765800476e-01,-1.233359500765800476e-01,-1.233359500765800476e-01,-1.213150918483734131e-01,-1.213150918483734131e-01,-1.213150918483734131e-01,-1.213150918483734131e-01,-1.054472699761390686e-01,-1.054472699761390686e-01,-1.054472699761390686e-01,-1.088634505867958069e-01,2.335841208696365356e-02,2.335841208696365356e-02,1.012372821569442749e-01,1.012372821569442749e-01,-7.344356924295425415e-02,-7.344356924295425415e-02,2.253529988229274750e-02,2.253529988229274750e-02,1.757763624191284180e-01,1.757763624191284180e-01,3.110223412513732910e-01,3.110223412513732910e-01,3.110223412513732910e-01,3.944815397262573242e-01,3.944815397262573242e-01,3.944815397262573242e-01,4.338805079460144043e-01,4.338805079460144043e-01,4.338805079460144043e-01,4.525657594203948975e-01,4.242037832736968994e-01,4.242037832736968994e-01,4.242037832736968994e-01,4.242037832736968994e-01,4.563817679882049561e-01,4.563817679882049561e-01,4.563817679882049561e-01,4.563817679882049561e-01,4.628910422325134277e-01,4.628910422325134277e-01,4.628910422325134277e-01,4.628910422325134277e-01,4.615921974182128906e-01,4.615921974182128906e-01,4.615921974182128906e-01,4.610385596752166748e-01,4.609691202640533447e-01,4.609691202640533447e-01,4.609691202640533447e-01,4.625540971755981445e-01
-4.269422963261604309e-02,-4.922612756490707397e-02,-4.539532214403152466e-02,-4.539532214403152466e-02,-4.539532214403152466e-02,-5.269959568977355957e-02,-5.269959568977355957e-02,-5.269959568977355957e-02,-5.269959568977355957e-02,-5.828742682933807373e-02,-5.828742682933807373e-02,-5.828742682933807373e-02,-6.963969022035598755e-02,-6.963969022035598755e-02,-6.963969022035598755e-02,-6.762654334306716919e-02,-6.762654334306716919e-02,-6.283257156610488892e-02,-6.283257156610488892e-02,-7.151240110397338867e-02,-7.151240110397338867e-02,-6.419178098440170288e-02,-6.419178098440170288e-02,-6.419178098440170288e-02,-5.667025595903396606e-02,-5.667025595903396606e-02,-5.667025595903396606e-02,-5.667025595903396606e-02,-4.970012232661247253e-02,-4.970012232661247253e-02,-4.392435774207115173e-02,-4.392435774207115173e-02,-4.392435774207115173e-02,-4.186210036277770996e-02,-4.186210036277770996e-02,-4.393542930483818054e-02,-4.600263759493827820e-02,-4.600263759493827820e-02,-4.600263759493827820e-02,-4.660134389996528625e-02,-4.660134389996528625e-02,-4.660134389996528625e-02,-5.315372720360755920e-02,-5.315372720360755920e-02,-5.315372720360755920e-02,-6.265028566122055054e-02,-6.265028566122055054e-02,-5.858214572072029114e-02,-5.858214572072029114e-02,-6.717770546674728394e-02,-6.717770546674728394e-02,-6.717770546674728394e-02,-7.907304912805557251e-02,-7.907304912805557251e-02,-7.907304912805557251e-02,-7.473476231098175049e-02,-7.473476231098175049e-02,-8.518831431865692139e-02,-8.518831431865692139e-02,-8.518831431865692139e-02,-8.446580171585083008e-02,-8.446580171585083008e-02,-8.446580171585083008e-02,-8.684370666742324829e-02,-9.340419620275497437e-02,-9.340419620275497437e-02,-9.340419620275497437e-02,-9.340419620275497437e-02,-8.746045827865600586e-02,-8.746045827865600586e-02,-8.746045827865600586e-02,-8.746045827865600586e-02,-6.995340436697006226e-02,-6.995340436697006226e-02,-6.995340436697006226e-02,-7.360486686229705811e-02,7.102681696414947510e-02,7.102681696414947510e-02,1.499544233083724976e-01,1.499544233083724976e-01,-5.204674974083900452e-02,-5.204674974083900452e-02,4.600375518202781677e-02,4.600375518202781677e-02,2.253869473934173584e-01,2.253869473934173584e-01,3.536543250083923340e-01,3.536543250083923340e-01,3.536543250083923340e-01,4.294688105583190918e-01,4.294688105583190918e-01,4.294688105583190918e-01,4.664727151393890381e-01,4.664727151393890381e-01,4.664727151393890381e-01,4.818051755428314209e-01,4.527720212936401367e-01,4.527720212936401367e-01,4.527720212936401367e-01,4.527720212936401367e-01,4.622026681900024414e-01,4.622026681900024414e-01,4.622026681900024414e-01,4.622026681900024414e-01,4.489561319351196289e-01,4.489561319351196289e-01,4.489561319351196289e-01,4.489561319351196289e-01,4.503653347492218018e-01,4.503653347492218018e-01,4.503653347492218018e-01,4.455225467681884766e-01,4.457331597805023193e-01,4.457331597805023193e-01,4.457331597805023193e-01,4.468603730201721191e-01
-7.880122214555740356e-02,-8.949096500873565674e-02,-8.054569363594055176e-02,-8.054569363594055176e-02,-8.054569363594055176e-02,-9.217277914285659790e-02,-9.217277914285659790e-02,-9.217277914285659790e-02,-9.217277914285659790e-02,-9.799057990312576294e-02,-9.799057990312576294e-02,-9.799057990312576294e-02,-1.108248680830001831e-01,-1.108248680830001831e-01,-1.108248680830001831e-01,-1.071371957659721375e-01,-1.071371957659721375e-01,-1.012222766876220703e-01,-1.012222766876220703e-01,-1.105731725692749023e-01,-1.105731725692749023e-01,-1.023439094424247742e-01,-1.023439094424247742e-01,-1.023439094424247742e-01,-9.190471470355987549e-02,-9.190471470355987549e-02,-9.190471470355987549e-02,-9.190471470355987549e-02,-8.196518570184707642e-02,-8.196518570184707642e-02,-7.309422641992568970e-02,-7.309422641992568970e-02,-7.309422641992568970e-02,-6.680534780025482178e-02,-6.680534780025482178e-02,-6.534344702959060669e-02,-7.634998112916946411e-02,-7.634998112916946411e-02,-7.634998112916946411e-02,-7.117163389921188354e-02,-7.117163389921188354e-02,-7.117163389921188354e-02,-7.000117748975753784e-02,-7.000117748975753784e-02,-7.000117748975753784e-02,-7.202301919460296631e-02,-7.202301919460296631e-02,-7.615531235933303833e-02,-7.615531235933303833e-02,-7.683461159467697144e-02,-7.683461159467697144e-02,-7.683461159467697144e-02,-8.342438936233520508e-02,-8.342438936233520508e-02,-8.342438936233520508e-02,-8.641716092824935913e-02,-8.641716092824935913e-02,-1.018357649445533752e-01,-1.018357649445533752e-01,-1.018357649445533752e-01,-1.069671511650085449e-01,-1.069671511650085449e-01,-1.069671511650085449e-01,-1.146382167935371399e-01,-1.273289918899536133e-01,-1.273289918899536133e-01,-1.273289918899536133e-01,-1.273289918899536133e-01,-1.212392598390579224e-01,-1.212392598390579224e-01,-1.212392598390579224e-01,-1.212392598390579224e-01,-1.071519777178764343e-01,-1.071519777178764343e-01,-1.071519777178764343e-01,-1.075588241219520569e-01,7.258531637489795685e-03,7.258531637489795685e-03,7.696742564439773560e-02,7.696742564439773560e-02,-8.018511533737182617e-02,-8.018511533737182617e-02,3.476673271507024765e-03,3.476673271507024765e-03,1.463290750980377197e-01,1.463290750980377197e-01,2.689534723758697510e-01,2.689534723758697510e-01,2.689534723758697510e-01,3.361199200153350830e-01,3.361199200153350830e-01,3.361199200153350830e-01,3.704185485839843750e-01,3.704185485839843750e-01,3.704185485839843750e-01,3.829946815967559814e-01,3.583499491214752197e-01,3.583499491214752197e-01,3.583499491214752197e-01,3.583499491214752197e-01,3.799551427364349365e-01,3.799551427364349365e-01,3.799551427364349365e-01,3.799551427364349365e-01,3.767710924148559570e-01,3.767710924148559570e-01,3.767710924148559570e-01,3.767710924148559570e-01,3.775333166122436523e-01,3.775333166122436523e-01,3.775333166122436523e-01,3.788447976112365723e-01,3.766640126705169678e-01,3.766640126705169678e-01,3.766640126705169678e-01,3.762924075126647949e-01
-1.485480666160583496e-01,-1.560420095920562744e-01,-1.479243189096450806e-01,-1.479243189096450806e-01,-1.479243189096450806e-01,-1.559240818023681641e-01,-1.559240818023681641e-01,-1.559240818023681641e-01,-1.559240818023681641e-01,-1.569876223802566528e-01,-1.569876223802566528e-01,-1.569876223802566528e-01,-1.615275591611862183e-01,-1.615275591611862183e-01,-1.615275591611862183e-01,-1.566042155027389526e-01,-1.566042155027389526e-01,-1.495646685361862183e-01,-1.495646685361862183e-01,-1.556632965803146362e-01,-1.556632965803146362e-01,-1.471645534038543701e-01,-1.471645534038543701e-01,-1.471645534038543701e-01,-1.379159539937973022e-01,-1.379159539937973022e-01,-1.379159539937973022e-01,-1.379159539937973022e-01,-1.292906254529953003e-01,-1.292906254529953003e-01,-1.202058494091033936e-01,-1.202058494091033936e-01,-1.202058494091033936e-01,-1.117459535598754883e-01,-1.117459535598754883e-01,-1.060540899634361267e-01,-1.191678494215011597e-01,-1.191678494215011597e-01,-1.191678494215011597e-01,-1.130573451519012451e-01,-1.130573451519012451e-01,-1.130573451519012451e-01,-1.093859821557998657e-01,-1.093859821557998657e-01,-1.093859821557998657e-01,-1.081697717308998108e-01,-1.081697717308998108e-01,-1.141475513577461243e-01,-1.141475513577461243e-01,-1.120114922523498535e-01,-1.120114922523498535e-01,-1.120114922523498535e-01,-1.121424213051795959e-01,-1.121424213051795959e-01,-1.121424213051795959e-01,-1.199796050786972046e-01,-1.199796050786972046e-01,-1.227731630206108093e-01,-1.227731630206108093e-01,-1.227731630206108093e-01,-1.304984986782073975e-01,-1.304984986782073975e-01,-1.304984986782073975e-01,-1.407456547021865845e-01,-1.449605226516723633e-01,-1.449605226516723633e-01,-1.449605226516723633e-01,-1.449605226516723633e-01,-1.467763334512710571e-01,-1.467763334512710571e-01,-1.467763334512710571e-01,-1.467763334512710571e-01,-1.394310444593429565e-01,-1.394310444593429565e-01,-1.394310444593429565e-01,-1.352742165327072144e-01,-5.097549781203269958e-02,-5.097549781203269958e-02,-1.079303256119601429e-04,-1.079303256119601429e-04,-1.055269688367843628e-01,-1.055269688367843628e-01,-4.373179003596305847e-02,-4.373179003596305847e-02,5.982488393783569336e-02,5.982488393783569336e-02,1.805011481046676636e-01,1.805011481046676636e-01,1.805011481046676636e-01,2.472343444824218750e-01,2.472343444824218750e-01,2.472343444824218750e-01,2.850469052791595459e-01,2.850469052791595459e-01,2.850469052791595459e-01,3.092247843742370605e-01,2.780078351497650146e-01,2.780078351497650146e-01,2.780078351497650146e-01,2.780078351497650146e-01,3.182899951934814453e-01,3.182899951934814453e-01,3.182899951934814453e-01,3.182899951934814453e-01,3.345723450183868408e-01,3.345723450183868408e-01,3.345723450183868408e-01,3.345723450183868408e-01,3.308959603309631348e-01,3.308959603309631348e-01,3.308959603309631348e-01,3.241545557975769043e-01,3.260041475296020508e-01,3.260041475296020508e-01,3.260041475296020508e-01,3.278751671314239502e-01
-2.071265578269958496e-01,-2.166183143854141235e-01,-2.066707015037536621e-01,-2.066707015037536621e-01,-2.066707015037536621e-01,-2.167660742998123169e-01,-2.167660742998123169e-01,-2.167660742998123169e-01,-2.167660742998123169e-01,-2.174011170864105225e-01,-2.174011170864105225e-01,-2.174011170864105225e-01,-2.203201204538345337e-01,-2.203201204538345337e-01,-2.203201204538345337e-01,-2.141068130731582642e-01,-2.141068130731582642e-01,-2.052529603242874146e-01,-2.052529603242874146e-01,-2.099723964929580688e-01,-2.099723964929580688e-01,-1.987614333629608154e-01,-1.987614333629608154e-01,-1.987614333629608154e-01,-1.856335103511810303e-01,-1.856335103511810303e-01,-1.856335103511810303e-01,-1.856335103511810303e-01,-1.736023426055908203e-01,-1.736023426055908203e-01,-1.613178551197052002e-01,-1.613178551197052002e-01,-1.613178551197052002e-01,-1.504116952419281006e-01,-1.504116952419281006e-01,-1.401185393333435059e-01,-1.574370265007019043e-01,-1.574370265007019043e-01,-1.574370265007019043e-01,-1.450498998165130615e-01,-1.450498998165130615e-01,-1.450498998165130615e-01,-1.361837834119796753e-01,-1.361837834119796753e-01,-1.361837834119796753e-01,-1.304852664470672607e-01,-1.304852664470672607e-01,-1.443287730216979980e-01,-1.443287730216979980e-01,-1.376045197248458862e-01,-1.376045197248458862e-01,-1.376045197248458862e-01,-1.347749233245849609e-01,-1.347749233245849609e-01,-1.347749233245849609e-01,-1.512873768806457520e-01,-1.512873768806457520e-01,-1.499356031417846680e-01,-1.499356031417846680e-01,-1.499356031417846680e-01,-1.636038124561309814e-01,-1.636038124561309814e-01,-1.636038124561309814e-01,-1.786740422248840332e-01,-1.816812306642532349e-01,-1.816812306642532349e-01,-1.816812306642532349e-01,-1.816812306642532349e-01,-1.863118559122085571e-01,-1.863118559122085571e-01,-1.863118559122085571e-01,-1.863118559122085571e-01,-1.743801385164260864e-01,-1.743801385164260864e-01,-1.743801385164260864e-01,-1.750264167785644531e-01,-6.903895735740661621e-02,-6.903895735740661621e-02,-1.533419173210859299e-02,-1.533419173210859299e-02,-1.566306650638580322e-01,-1.566306650638580322e-01,-9.056766331195831299e-02,-9.056766331195831299e-02,4.068668186664581299e-02,4.068668186664581299e-02,1.570199579000473022e-01,1.570199579000473022e-01,1.570199579000473022e-01,2.280674427747726440e-01,2.280674427747726440e-01,2.280674427747726440e-01,2.690870463848114014e-01,2.690870463848114014e-01,2.690870463848114014e-01,2.989620566368103027e-01,2.656999230384826660e-01,2.656999230384826660e-01,2.656999230384826660e-01,2.656999230384826660e-01,3.206115067005157471e-01,3.206115067005157471e-01,3.206115067005157471e-01,3.206115067005157471e-01,3.408600986003875732e-01,3.408600986003875732e-01,3.408600986003875732e-01,3.408600986003875732e-01,3.303478062152862549e-01,3.303478062152862549e-01,3.303478062152862549e-01,3.182851672172546387e-01,3.207507729530334473e-01,3.207507729530334473e-01,3.207507729530334473e-01,3.243361115455627441e-01
-2.310587167739868164e-01,-2.423392087221145630e-01,-2.358811646699905396e-01,-2.358811646699905396e-01,-2.358811646699905396e-01,-2.456589937210083008e-01,-2.456589937210083008e-01,-2.456589937210083008e-01,-2.456589937210083008e-01,-2.482329905033111572e-01,-2.482329905033111572e-01,-2.482329905033111572e-01,-2.540406882762908936e-01,-2.540406882762908936e-01,-2.540406882762908936e-01,-2.485760003328323364e-01,-2.485760003328323364e-01,-2.412690967321395874e-01,-2.412690967321395874e-01,-2.478765100240707397e-01,-2.478765100240707397e-01,-2.374001592397689819e-01,-2.374001592397689819e-01,-2.374001592397689819e-01,-2.252906262874603271e-01,-2.252906262874603271e-01,-2.252906262874603271e-01,-2.252906262874603271e-01,-2.130696028470993042e-01,-2.130696028470993042e-01,-2.003574520349502563e-01,-2.003574520349502563e-01,-2.003574520349502563e-01,-1.890963166952133179e-01,-1.890963166952133179e-01,-1.769998967647552490e-01,-1.965861618518829346e-01,-1.965861618518829346e-01,-1.965861618518829346e-01,-1.823908090591430664e-01,-1.823908090591430664e-01,-1.823908090591430664e-01,-1.720995903015136719e-01,-1.720995903015136719e-01,-1.720995903015136719e-01,-1.650436371564865112e-01,-1.650436371564865112e-01,-1.811718642711639404e-01,-1.811718642711639404e-01,-1.717032790184020996e-01,-1.717032790184020996e-01,-1.717032790184020996e-01,-1.682749837636947632e-01,-1.682749837636947632e-01,-1.682749837636947632e-01,-1.871401667594909668e-01,-1.871401667594909668e-01,-1.848601400852203369e-01,-1.848601400852203369e-01,-1.848601400852203369e-01,-2.000783830881118774e-01,-2.000783830881118774e-01,-2.000783830881118774e-01,-2.174558490514755249e-01,-2.197604924440383911e-01,-2.197604924440383911e-01,-2.197604924440383911e-01,-2.197604924440383911e-01,-2.227956205606460571e-01,-2.227956205606460571e-01,-2.227956205606460571e-01,-2.227956205606460571e-01,-1.913022249937057495e-01,-1.913022249937057495e-01,-1.913022249937057495e-01,-2.005527466535568237e-01,-4.298545047640800476e-02,-4.298545047640800476e-02,4.838798940181732178e-02,4.838798940181732178e-02,-1.911554932594299316e-01,-1.911554932594299316e-01,-1.044632568955421448e-01,-1.044632568955421448e-01,1.126855239272117615e-01,1.126855239272117615e-01,2.363371700048446655e-01,2.363371700048446655e-01,2.363371700048446655e-01,3.145151734352111816e-01,3.145151734352111816e-01,3.145151734352111816e-01,3.522990643978118896e-01,3.522990643978118896e-01,3.522990643978118896e-01,3.616946935653686523e-01,3.389695584774017334e-01,3.389695584774017334e-01,3.389695584774017334e-01,3.389695584774017334e-01,3.534840345382690430e-01,3.534840345382690430e-01,3.534840345382690430e-01,3.534840345382690430e-01,3.377526402473449707e-01,3.377526402473449707e-01,3.377526402473449707e-01,3.377526402473449707e-01,3.297857642173767090e-01,3.297857642173767090e-01,3.297857642173767090e-01,3.208862543106079102e-01,3.222919404506683350e-01,3.222919404506683350e-01,3.222919404506683350e-01,3.251405060291290283e-01
-2.321520596742630005e-01,-2.421846240758895874e-01,-2.384521216154098511e-01,-2.384521216154098511e-01,-2.384521216154098511e-01,-2.471606582403182983e-01,-2.471606582403182983e-01,-2.471606582403182983e-01,-2.471606582403182983e-01,-2.516097426414489746e-01,-2.516097426414489746e-01,-2.516097426414489746e-01,-2.564054131507873535e-01,-2.564054131507873535e-01,-2.564054131507873535e-01,-2.539694905281066895e-01,-2.539694905281066895e-01,-2.497998327016830444e-01,-2.497998327016830444e-01,-2.543924450874328613e-01,-2.543924450874328613e-01,-2.485588490962982178e-01,-2.485588490962982178e-01,-2.485588490962982178e-01,-2.417549639940261841e-01,-2.417549639940261841e-01,-2.417549639940261841e-01,-2.417549639940261841e-01,-2.329298853874206543e-01,-2.329298853874206543e-01,-2.246118634939193726e-01,-2.246118634939193726e-01,-2.246118634939193726e-01,-2.180015295743942261e-01,-2.180015295743942261e-01,-2.100612521171569824e-01,-2.198662459850311279e-01,-2.198662459850311279e-01,-2.198662459850311279e-01,-2.094567716121673584e-01,-2.094567716121673584e-01,-2.094567716121673584e-01,-2.018007636070251465e-01,-2.018007636070251465e-01,-2.018007636070251465e-01,-1.958012133836746216e-01,-1.958012133836746216e-01,-2.026578783988952637e-01,-2.026578783988952637e-01,-1.938776522874832153e-01,-1.938776522874832153e-01,-1.938776522874832153e-01,-1.886009871959686279e-01,-1.886009871959686279e-01,-1.886009871959686279e-01,-1.973030567169189453e-01,-1.973030567169189453e-01,-1.935110688209533691e-01,-1.935110688209533691e-01,-1.935110688209533691e-01,-2.034457623958587646e-01,-2.034457623958587646e-01,-2.034457623958587646e-01,-2.148437201976776123e-01,-2.178776860237121582e-01,-2.178776860237121582e-01,-2.178776860237121582e-01,-2.178776860237121582e-01,-2.175029069185256958e-01,-2.175029069185256958e-01,-2.175029069185256958e-01,-2.175029069185256958e-01,-1.911415010690689087e-01,-1.911415010690689087e-01,-1.911415010690689087e-01,-2.000687271356582642e-01,-5.006473138928413391e-02,-5.006473138928413391e-02,3.852611407637596130e-02,3.852611407637596130e-02,-1.868285089731216431e-01,-1.868285089731216431e-01,-1.042592748999595642e-01,-1.042592748999595642e-01,1.038875728845596313e-01,1.038875728845596313e-01,2.428318709135055542e-01,2.428318709135055542e-01,2.428318709135055542e-01,3.311892449855804443e-01,3.311892449855804443e-01,3.311892449855804443e-01,3.746391534805297852e-01,3.746391534805297852e-01,3.746391534805297852e-01,3.902802169322967529e-01,3.639899194240570068e-01,3.639899194240570068e-01,3.639899194240570068e-01,3.639899194240570068e-01,3.833052515983581543e-01,3.833052515983581543e-01,3.833052515983581543e-01,3.833052515983581543e-01,3.706036210060119629e-01,3.706036210060119629e-01,3.706036210060119629e-01,3.706036210060119629e-01,3.657906949520111084e-01,3.657906949520111084e-01,3.657906949520111084e-01,3.517161607742309570e-01,3.569145500659942627e-01,3.569145500659942627e-01,3.569145500659942627e-01,3.646815717220306396e-01
-1.382047086954116821e-01,-1.352678090333938599e-01,-1.404283195734024048e-01,-1.404283195734024048e-01,-1.404283195734024048e-01,-1.391451656818389893e-01,-1.391451656818389893e-01,-1.391451656818389893e-01,-1.391451656818389893e-01,-1.435378193855285645e-01,-1.435378193855285645e-01,-1.435378193855285645e-01,-1.489318460226058960e-01,-1.489318460226058960e-01,-1.489318460226058960e-01,-1.497639417648315430e-01,-1.497639417648315430e-01,-1.509610116481781006e-01,-1.509610116481781006e-01,-1.541762351989746094e-01,-1.541762351989746094e-01,-1.530493795871734619e-01,-1.530493795871734619e-01,-1.530493795871734619e-01,-1.513561010360717773e-01,-1.513561010360717773e-01,-1.513561010360717773e-01,-1.513561010360717773e-01,-1.492618471384048462e-01,-1.492618471384048462e-01,-1.464141905307769775e-01,-1.464141905307769775e-01,-1.464141905307769775e-01,-1.432843506336212158e-01,-1.432843506336212158e-01,-1.408312171697616577e-01,-1.420197635889053345e-01,-1.420197635889053345e-01,-1.420197635889053345e-01,-1.377931684255599976e-01,-1.377931684255599976e-01,-1.377931684255599976e-01,-1.353239566087722778e-01,-1.353239566087722778e-01,-1.353239566087722778e-01,-1.350661218166351318e-01,-1.350661218166351318e-01,-1.350651830434799194e-01,-1.350651830434799194e-01,-1.358071565628051758e-01,-1.358071565628051758e-01,-1.358071565628051758e-01,-1.391166150569915771e-01,-1.391166150569915771e-01,-1.391166150569915771e-01,-1.346681416034698486e-01,-1.346681416034698486e-01,-1.380292326211929321e-01,-1.380292326211929321e-01,-1.380292326211929321e-01,-1.389588564634323120e-01,-1.389588564634323120e-01,-1.389588564634323120e-01,-1.475400030612945557e-01,-1.586879640817642212e-01,-1.586879640817642212e-01,-1.586879640817642212e-01,-1.586879640817642212e-01,-1.522965133190155029e-01,-1.522965133190155029e-01,-1.522965133190155029e-01,-1.522965133190155029e-01,-1.248531416058540344e-01,-1.248531416058540344e-01,-1.248531416058540344e-01,-1.330961585044860840e-01,1.006225962191820145e-02,1.006225962191820145e-02,9.651254862546920776e-02,9.651254862546920776e-02,-1.305597722530364990e-01,-1.305597722530364990e-01,-4.561543464660644531e-02,-4.561543464660644531e-02,1.654280573129653931e-01,1.654280573129653931e-01,2.769841253757476807e-01,2.769841253757476807e-01,2.769841253757476807e-01,3.482981324195861816e-01,3.482981324195861816e-01,3.482981324195861816e-01,3.823347687721252441e-01,3.823347687721252441e-01,3.823347687721252441e-01,3.902674019336700439e-01,3.747223317623138428e-01,3.747223317623138428e-01,3.747223317623138428e-01,3.747223317623138428e-01,3.880897760391235352e-01,3.880897760391235352e-01,3.880897760391235352e-01,3.880897760391235352e-01,3.798588216304779053e-01,3.798588216304779053e-01,3.798588216304779053e-01,3.798588216304779053e-01,3.802256882190704346e-01,3.802256882190704346e-01,3.802256882190704346e-01,3.767789304256439209e-01,3.762489855289459229e-01,3.762489855289459229e-01,3.762489855289459229e-01,3.759668171405792236e-01
-1.284276247024536133e-01,-1.238166168332099915e-01,-1.296860873699188232e-01,-1.296860873699188232e-01,-1.296860873699188232e-01,-1.242370977997779846e-01,-1.242370977997779846e-01,-1.242370977997779846e-01,-1.242370977997779846e-01,-1.246859133243560791e-01,-1.246859133243560791e-01,-1.246859133243560791e-01,-1.293888539075851440e-01,-1.293888539075851440e-01,-1.293888539075851440e-01,-1.320308595895767212e-01,-1.320308595895767212e-01,-1.345584094524383545e-01,-1.345584094524383545e-01,-1.386110335588455200e-01,-1.386110335588455200e-01,-1.388235539197921753e-01,-1.388235539197921753e-01,-1.388235539197921753e-01,-1.393755376338958740e-01,-1.393755376338958740e-01,-1.393755376338958740e-01,-1.393755376338958740e-01,-1.390665173530578613e-01,-1.390665173530578613e-01,-1.370637863874435425e-01,-1.370637863874435425e-01,-1.370637863874435425e-01,-1.346791088581085205e-01,-1.346791088581085205e-01,-1.327479034662246704e-01,-1.338548213243484497e-01,-1.338548213243484497e-01,-1.338548213243484497e-01,-1.313348114490509033e-01,-1.313348114490509033e-01,-1.313348114490509033e-01,-1.296390593051910400e-01,-1.296390593051910400e-01,-1.296390593051910400e-01,-1.297501027584075928e-01,-1.297501027584075928e-01,-1.303576827049255371e-01,-1.303576827049255371e-01,-1.311143934726715088e-01,-1.311143934726715088e-01,-1.311143934726715088e-01,-1.326487809419631958e-01,-1.326487809419631958e-01,-1.326487809419631958e-01,-1.306605637073516846e-01,-1.306605637073516846e-01,-1.329397261142730713e-01,-1.329397261142730713e-01,-1.329397261142730713e-01,-1.330271661281585693e-01,-1.330271661281585693e-01,-1.330271661281585693e-01,-1.337632089853286743e-01,-1.436076313257217407e-01,-1.436076313257217407e-01,-1.436076313257217407e-01,-1.436076313257217407e-01,-1.363108456134796143e-01,-1.363108456134796143e-01,-1.363108456134796143e-01,-1.363108456134796143e-01,-1.170580014586448669e-01,-1.170580014586448669e-01,-1.170580014586448669e-01,-1.222206875681877136e-01,1.040460355579853058e-02,1.040460355579853058e-02,9.772173315286636353e-02,9.772173315286636353e-02,-1.072123199701309204e-01,-1.072123199701309204e-01,-1.897907815873622894e-02,-1.897907815873622894e-02,1.717283129692077637e-01,1.717283129692077637e-01,2.922538518905639648e-01,2.922538518905639648e-01,2.922538518905639648e-01,3.616404235363006592e-01,3.616404235363006592e-01,3.616404235363006592e-01,3.960886299610137939e-01,3.960886299610137939e-01,3.960886299610137939e-01,4.071934819221496582e-01,3.887821733951568604e-01,3.887821733951568604e-01,3.887821733951568604e-01,3.887821733951568604e-01,4.065612852573394775e-01,4.065612852573394775e-01,4.065612852573394775e-01,4.065612852573394775e-01,4.062391221523284912e-01,4.062391221523284912e-01,4.062391221523284912e-01,4.062391221523284912e-01,4.084299206733703613e-01,4.084299206733703613e-01,4.084299206733703613e-01,4.045282304286956787e-01,4.074413180351257324e-01,4.074413180351257324e-01,4.074413180351257324e-01,4.116210341453552246e-01
-8.797191083431243896e-02,-8.786893635988235474e-02,-9.520035237073898315e-02,-9.520035237073898315e-02,-9.520035237073898315e-02,-9.314821660518646240e-02,-9.314821660518646240e-02,-9.314821660518646240e-02,-9.314821660518646240e-02,-9.360462427139282227e-02,-9.360462427139282227e-02,-9.360462427139282227e-02,-9.795381873846054077e-02,-9.795381873846054077e-02,-9.795381873846054077e-02,-9.958864748477935791e-02,-9.958864748477935791e-02,-1.011695787310600281e-01,-1.011695787310600281e-01,-1.060553714632987976e-01,-1.060553714632987976e-01,-1.063541918992996216e-01,-1.063541918992996216e-01,-1.063541918992996216e-01,-1.095678433775901794e-01,-1.095678433775901794e-01,-1.095678433775901794e-01,-1.095678433775901794e-01,-1.141312345862388611e-01,-1.141312345862388611e-01,-1.175132542848587036e-01,-1.175132542848587036e-01,-1.175132542848587036e-01,-1.181941032409667969e-01,-1.181941032409667969e-01,-1.170129850506782532e-01,-1.177158281207084656e-01,-1.177158281207084656e-01,-1.177158281207084656e-01,-1.168457940220832825e-01,-1.168457940220832825e-01,-1.168457940220832825e-01,-1.153192296624183655e-01,-1.153192296624183655e-01,-1.153192296624183655e-01,-1.145683899521827698e-01,-1.145683899521827698e-01,-1.162666156888008118e-01,-1.162666156888008118e-01,-1.157117486000061035e-01,-1.157117486000061035e-01,-1.157117486000061035e-01,-1.173727661371231079e-01,-1.173727661371231079e-01,-1.173727661371231079e-01,-1.201113238930702209e-01,-1.201113238930702209e-01,-1.233240813016891479e-01,-1.233240813016891479e-01,-1.233240813016891479e-01,-1.278662234544754028e-01,-1.278662234544754028e-01,-1.278662234544754028e-01,-1.318517923355102539e-01,-1.413447111845016479e-01,-1.413447111845016479e-01,-1.413447111845016479e-01,-1.413447111845016479e-01,-1.356792151927947998e-01,-1.356792151927947998e-01,-1.356792151927947998e-01,-1.356792151927947998e-01,-1.163488402962684631e-01,-1.163488402962684631e-01,-1.163488402962684631e-01,-1.202658042311668396e-01,1.904485560953617096e-02,1.904485560953617096e-02,9.391120821237564087e-02,9.391120821237564087e-02,-1.046805530786514282e-01,-1.046805530786514282e-01,-1.589598506689071655e-02,-1.589598506689071655e-02,1.734495609998703003e-01,1.734495609998703003e-01,2.917774915695190430e-01,2.917774915695190430e-01,2.917774915695190430e-01,3.602862060070037842e-01,3.602862060070037842e-01,3.602862060070037842e-01,3.925022482872009277e-01,3.925022482872009277e-01,3.925022482872009277e-01,4.032766819000244141e-01,3.863516151905059814e-01,3.863516151905059814e-01,3.863516151905059814e-01,3.863516151905059814e-01,4.018725156784057617e-01,4.018725156784057617e-01,4.018725156784057617e-01,4.018725156784057617e-01,3.979394137859344482e-01,3.979394137859344482e-01,3.979394137859344482e-01,3.979394137859344482e-01,4.035800099372863770e-01,4.035800099372863770e-01,4.035800099372863770e-01,4.046762883663177490e-01,4.064109623432159424e-01,4.064109623432159424e-01,4.064109623432159424e-01,4.086786806583404541e-01
