-5.854075029492378235e-02,-5.854075029492378235e-02,-5.854075029492378235e-02,-6.589073687791824341e-02,-6.589073687791824341e-02,-6.589073687791824341e-02,-6.589073687791824341e-02,-7.756159454584121704e-02,-7.756159454584121704e-02,-7.756159454584121704e-02,-8.856230229139328003e-02,-8.856230229139328003e-02,-8.856230229139328003e-02,-9.294180572032928467e-02,-9.294180572032928467e-02,-9.776069968938827515e-02,-9.776069968938827515e-02,-1.042575836181640625e-01,-1.042575836181640625e-01,-1.071160063147544861e-01,-1.071160063147544861e-01,-1.071160063147544861e-01,-1.109587550163269043e-01,-1.109587550163269043e-01,-1.109587550163269043e-01,-1.109587550163269043e-01,-1.149780899286270142e-01,-1.149780899286270142e-01,-1.182788535952568054e-01,-1.182788535952568054e-01,-1.182788535952568054e-01,-1.212955564260482788e-01,-1.212955564260482788e-01,-1.248992905020713806e-01,-1.215269640088081360e-01,-1.215269640088081360e-01,-1.215269640088081360e-01,-1.257529556751251221e-01,-1.257529556751251221e-01,-1.257529556751251221e-01,-1.286800950765609741e-01,-1.286800950765609741e-01,-1.286800950765609741e-01,-1.300116330385208130e-01,-1.300116330385208130e-01,-1.283279359340667725e-01,-1.283279359340667725e-01,-1.277104616165161133e-01,-1.277104616165161133e-01,-1.277104616165161133e-01,-1.247411221265792847e-01,-1.247411221265792847e-01,-1.247411221265792847e-01,-1.249048113822937012e-01,-1.249048113822937012e-01,-1.250582188367843628e-01,-1.250582188367843628e-01,-1.250582188367843628e-01,-1.269484460353851318e-01,-1.269484460353851318e-01,-1.269484460353851318e-01,-1.331206113100051880e-01,-1.353820562362670898e-01,-1.353820562362670898e-01,-1.353820562362670898e-01,-1.353820562362670898e-01,-1.345368325710296631e-01,-1.345368325710296631e-01,-1.345368325710296631e-01,-1.345368325710296631e-01,-1.289007365703582764e-01,-1.289007365703582764e-01,-1.289007365703582764e-01,-1.277987957000732422e-01,-4.732829704880714417e-02,-4.732829704880714417e-02,1.677562668919563293e-02,1.677562668919563293e-02,-8.718369901180267334e-02,-8.718369901180267334e-02,-3.504863753914833069e-02,-3.504863753914833069e-02,7.272121310234069824e-02,7.272121310234069824e-02,1.877298504114151001e-01,1.877298504114151001e-01,1.877298504114151001e-01,2.581117749214172363e-01,2.581117749214172363e-01,2.581117749214172363e-01,2.944208085536956787e-01,2.944208085536956787e-01,2.944208085536956787e-01,3.304787278175354004e-01,3.074269592761993408e-01,3.074269592761993408e-01,3.074269592761993408e-01,3.074269592761993408e-01,3.668800890445709229e-01,3.668800890445709229e-01,3.668800890445709229e-01,3.668800890445709229e-01,4.055369496345520020e-01,4.055369496345520020e-01,4.055369496345520020e-01,4.055369496345520020e-01,4.104575514793395996e-01,4.104575514793395996e-01,4.104575514793395996e-01,4.092817008495330811e-01,4.098106622695922852e-01,4.098106622695922852e-01,4.098106622695922852e-01,4.115064144134521484e-01,4.084586501121520996e-01,4.033119678497314453e-01
-3.220019489526748657e-02,-3.220019489526748657e-02,-3.220019489526748657e-02,-4.422183334827423096e-02,-4.422183334827423096e-02,-4.422183334827423096e-02,-4.422183334827423096e-02,-5.428418889641761780e-02,-5.428418889641761780e-02,-5.428418889641761780e-02,-7.107721269130706787e-02,-7.107721269130706787e-02,-7.107721269130706787e-02,-7.108885794878005981e-02,-7.108885794878005981e-02,-7.013981789350509644e-02,-7.013981789350509644e-02,-8.423392474651336670e-02,-8.423392474651336670e-02,-8.196607977151870728e-02,-8.196607977151870728e-02,-8.196607977151870728e-02,-8.291944116353988647e-02,-8.291944116353988647e-02,-8.291944116353988647e-02,-8.291944116353988647e-02,-8.566084504127502441e-02,-8.566084504127502441e-02,-8.839257061481475830e-02,-8.839257061481475830e-02,-8.839257061481475830e-02,-8.967811614274978638e-02,-8.967811614274978638e-02,-9.042634814977645874e-02,-9.290019422769546509e-02,-9.290019422769546509e-02,-9.290019422769546509e-02,-9.254547953605651855e-02,-9.254547953605651855e-02,-9.254547953605651855e-02,-9.068744629621505737e-02,-9.068744629621505737e-02,-9.068744629621505737e-02,-8.864711970090866089e-02,-8.864711970090866089e-02,-9.224558621644973755e-02,-9.224558621644973755e-02,-8.852387219667434692e-02,-8.852387219667434692e-02,-8.852387219667434692e-02,-8.366108685731887817e-02,-8.366108685731887817e-02,-8.366108685731887817e-02,-9.080676734447479248e-02,-9.080676734447479248e-02,-8.667705953121185303e-02,-8.667705953121185303e-02,-8.667705953121185303e-02,-9.260362386703491211e-02,-9.260362386703491211e-02,-9.260362386703491211e-02,-9.904324263334274292e-02,-9.737116843461990356e-02,-9.737116843461990356e-02,-9.737116843461990356e-02,-9.737116843461990356e-02,-9.632357209920883179e-02,-9.632357209920883179e-02,-9.632357209920883179e-02,-9.632357209920883179e-02,-8.049564063549041748e-02,-8.049564063549041748e-02,-8.049564063549041748e-02,-7.910216599702835083e-02,4.455105587840080261e-02,4.455105587840080261e-02,1.037766411900520325e-01,1.037766411900520325e-01,-4.567031934857368469e-02,-4.567031934857368469e-02,2.050027437508106232e-02,2.050027437508106232e-02,1.677701771259307861e-01,1.677701771259307861e-01,2.731857299804687500e-01,2.731857299804687500e-01,2.731857299804687500e-01,3.407571613788604736e-01,3.407571613788604736e-01,3.407571613788604736e-01,3.718087077140808105e-01,3.718087077140808105e-01,3.718087077140808105e-01,3.887084722518920898e-01,3.629144132137298584e-01,3.629144132137298584e-01,3.629144132137298584e-01,3.629144132137298584e-01,3.876902163028717041e-01,3.876902163028717041e-01,3.876902163028717041e-01,3.876902163028717041e-01,3.906131982803344727e-01,3.906131982803344727e-01,3.906131982803344727e-01,3.906131982803344727e-01,3.843598961830139160e-01,3.843598961830139160e-01,3.843598961830139160e-01,3.761039674282073975e-01,3.740505278110504150e-01,3.740505278110504150e-01,3.740505278110504150e-01,3.780443072319030762e-01,3.653644323348999023e-01,3.637055158615112305e-01
-1.505199633538722992e-02,-1.505199633538722992e-02,-1.505199633538722992e-02,-1.493638101965188980e-02,-1.493638101965188980e-02,-1.493638101965188980e-02,-1.493638101965188980e-02,-1.033214759081602097e-02,-1.033214759081602097e-02,-1.033214759081602097e-02,-7.532845716923475266e-03,-7.532845716923475266e-03,-7.532845716923475266e-03,-5.803276784718036652e-03,-5.803276784718036652e-03,-1.765609020367264748e-03,-1.765609020367264748e-03,-6.087350659072399139e-03,-6.087350659072399139e-03,5.299699841998517513e-04,5.299699841998517513e-04,5.299699841998517513e-04,5.851257126778364182e-03,5.851257126778364182e-03,5.851257126778364182e-03,5.851257126778364182e-03,1.099292840808629990e-02,1.099292840808629990e-02,1.492167916148900986e-02,1.492167916148900986e-02,1.492167916148900986e-02,1.430416759103536606e-02,1.430416759103536606e-02,6.468615494668483734e-03,9.101495146751403809e-03,9.101495146751403809e-03,9.101495146751403809e-03,-1.050619994202861562e-05,-1.050619994202861562e-05,-1.050619994202861562e-05,-1.346814911812543869e-02,-1.346814911812543869e-02,-1.346814911812543869e-02,-2.788385190069675446e-02,-2.788385190069675446e-02,-2.070405147969722748e-02,-2.070405147969722748e-02,-3.373977541923522949e-02,-3.373977541923522949e-02,-3.373977541923522949e-02,-4.290043190121650696e-02,-4.290043190121650696e-02,-4.290043190121650696e-02,-3.965940326452255249e-02,-3.965940326452255249e-02,-4.683811590075492859e-02,-4.683811590075492859e-02,-4.683811590075492859e-02,-4.559309408068656921e-02,-4.559309408068656921e-02,-4.559309408068656921e-02,-4.882077500224113464e-02,-5.864993482828140259e-02,-5.864993482828140259e-02,-5.864993482828140259e-02,-5.864993482828140259e-02,-5.689816176891326904e-02,-5.689816176891326904e-02,-5.689816176891326904e-02,-5.689816176891326904e-02,-4.478532448410987854e-02,-4.478532448410987854e-02,-4.478532448410987854e-02,-4.042435064911842346e-02,5.977650731801986694e-02,5.977650731801986694e-02,1.224810183048248291e-01,1.224810183048248291e-01,-1.189930737018585205e-02,-1.189930737018585205e-02,5.987397953867912292e-02,5.987397953867912292e-02,1.943444758653640747e-01,1.943444758653640747e-01,3.173871934413909912e-01,3.173871934413909912e-01,3.173871934413909912e-01,3.898178339004516602e-01,3.898178339004516602e-01,3.898178339004516602e-01,4.262667000293731689e-01,4.262667000293731689e-01,4.262667000293731689e-01,4.478804767131805420e-01,4.209551215171813965e-01,4.209551215171813965e-01,4.209551215171813965e-01,4.209551215171813965e-01,4.358575046062469482e-01,4.358575046062469482e-01,4.358575046062469482e-01,4.358575046062469482e-01,4.314491152763366699e-01,4.314491152763366699e-01,4.314491152763366699e-01,4.314491152763366699e-01,4.328863620758056641e-01,4.328863620758056641e-01,4.328863620758056641e-01,4.280128180980682373e-01,4.304480254650115967e-01,4.304480254650115967e-01,4.304480254650115967e-01,4.331337809562683105e-01,4.266768097877502441e-01,4.231229126453399658e-01
-3.274353593587875366e-02,-3.274353593587875366e-02,-3.274353593587875366e-02,-4.265375062823295593e-02,-4.265375062823295593e-02,-4.265375062823295593e-02,-4.265375062823295593e-02,-4.492969438433647156e-02,-4.492969438433647156e-02,-4.492969438433647156e-02,-4.795049875974655151e-02,-4.795049875974655151e-02,-4.795049875974655151e-02,-4.502040520310401917e-02,-4.502040520310401917e-02,-3.976534307003021240e-02,-3.976534307003021240e-02,-4.389506950974464417e-02,-4.389506950974464417e-02,-3.572840243577957153e-02,-3.572840243577957153e-02,-3.572840243577957153e-02,-2.833464927971363068e-02,-2.833464927971363068e-02,-2.833464927971363068e-02,-2.833464927971363068e-02,-2.178020589053630829e-02,-2.178020589053630829e-02,-1.488314382731914520e-02,-1.488314382731914520e-02,-1.488314382731914520e-02,-8.894748985767364502e-03,-8.894748985767364502e-03,-5.647801794111728668e-03,-1.272433064877986908e-02,-1.272433064877986908e-02,-1.272433064877986908e-02,-7.783794775605201721e-03,-7.783794775605201721e-03,-7.783794775605201721e-03,-4.923704080283641815e-03,-4.923704080283641815e-03,-4.923704080283641815e-03,-9.237839840352535248e-03,-9.237839840352535248e-03,-1.243812777101993561e-02,-1.243812777101993561e-02,-1.730107516050338745e-02,-1.730107516050338745e-02,-1.730107516050338745e-02,-2.449119836091995239e-02,-2.449119836091995239e-02,-2.449119836091995239e-02,-2.969232574105262756e-02,-2.969232574105262756e-02,-3.742826357483863831e-02,-3.742826357483863831e-02,-3.742826357483863831e-02,-4.282631725072860718e-02,-4.282631725072860718e-02,-4.282631725072860718e-02,-5.849368870258331299e-02,-7.536734640598297119e-02,-7.536734640598297119e-02,-7.536734640598297119e-02,-7.536734640598297119e-02,-8.363475650548934937e-02,-8.363475650548934937e-02,-8.363475650548934937e-02,-8.363475650548934937e-02,-6.984232366085052490e-02,-6.984232366085052490e-02,-6.984232366085052490e-02,-6.732080131769180298e-02,4.600811749696731567e-02,4.600811749696731567e-02,1.053483337163925171e-01,1.053483337163925171e-01,-3.807995840907096863e-02,-3.807995840907096863e-02,3.669923171401023865e-02,3.669923171401023865e-02,1.753023862838745117e-01,1.753023862838745117e-01,2.880491018295288086e-01,2.880491018295288086e-01,2.880491018295288086e-01,3.593213558197021484e-01,3.593213558197021484e-01,3.593213558197021484e-01,3.958208262920379639e-01,3.958208262920379639e-01,3.958208262920379639e-01,4.117201566696166992e-01,3.810172975063323975e-01,3.810172975063323975e-01,3.810172975063323975e-01,3.810172975063323975e-01,4.043815732002258301e-01,4.043815732002258301e-01,4.043815732002258301e-01,4.043815732002258301e-01,4.100547134876251221e-01,4.100547134876251221e-01,4.100547134876251221e-01,4.100547134876251221e-01,4.146200716495513916e-01,4.146200716495513916e-01,4.146200716495513916e-01,4.153138399124145508e-01,4.155312478542327881e-01,4.155312478542327881e-01,4.155312478542327881e-01,4.154503941535949707e-01,4.143458306789398193e-01,4.082640111446380615e-01
-1.854302361607551575e-02,-1.854302361607551575e-02,-1.854302361607551575e-02,-3.123389370739459991e-02,-3.123389370739459991e-02,-3.123389370739459991e-02,-3.123389370739459991e-02,-3.923863917589187622e-02,-3.923863917589187622e-02,-3.923863917589187622e-02,-4.870848730206489563e-02,-4.870848730206489563e-02,-4.870848730206489563e-02,-4.601914063096046448e-02,-4.601914063096046448e-02,-4.023600369691848755e-02,-4.023600369691848755e-02,-4.565552622079849243e-02,-4.565552622079849243e-02,-3.670037165284156799e-02,-3.670037165284156799e-02,-3.670037165284156799e-02,-2.810092642903327942e-02,-2.810092642903327942e-02,-2.810092642903327942e-02,-2.810092642903327942e-02,-1.951217465102672577e-02,-1.951217465102672577e-02,-1.106555014848709106e-02,-1.106555014848709106e-02,-1.106555014848709106e-02,-3.614967688918113708e-03,-3.614967688918113708e-03,2.472388092428445816e-03,-1.157138682901859283e-02,-1.157138682901859283e-02,-1.157138682901859283e-02,-3.650038968771696091e-03,-3.650038968771696091e-03,-3.650038968771696091e-03,2.394042443484067917e-03,2.394042443484067917e-03,2.394042443484067917e-03,5.761782638728618622e-03,5.761782638728618622e-03,-1.044286694377660751e-02,-1.044286694377660751e-02,-6.386246532201766968e-03,-6.386246532201766968e-03,-6.386246532201766968e-03,-8.003073744475841522e-03,-8.003073744475841522e-03,-8.003073744475841522e-03,-2.216746471822261810e-02,-2.216746471822261810e-02,-2.542058937251567841e-02,-2.542058937251567841e-02,-2.542058937251567841e-02,-3.771563991904258728e-02,-3.771563991904258728e-02,-3.771563991904258728e-02,-5.668523162603378296e-02,-7.304125279188156128e-02,-7.304125279188156128e-02,-7.304125279188156128e-02,-7.304125279188156128e-02,-7.765059918165206909e-02,-7.765059918165206909e-02,-7.765059918165206909e-02,-7.765059918165206909e-02,-6.289903074502944946e-02,-6.289903074502944946e-02,-6.289903074502944946e-02,-6.502732634544372559e-02,3.859610483050346375e-02,3.859610483050346375e-02,1.015544086694717407e-01,1.015544086694717407e-01,-4.437649250030517578e-02,-4.437649250030517578e-02,2.776425704360008240e-02,2.776425704360008240e-02,1.739907115697860718e-01,1.739907115697860718e-01,2.828242778778076172e-01,2.828242778778076172e-01,2.828242778778076172e-01,3.467067182064056396e-01,3.467067182064056396e-01,3.467067182064056396e-01,3.812549710273742676e-01,3.812549710273742676e-01,3.812549710273742676e-01,3.968837857246398926e-01,3.711282908916473389e-01,3.711282908916473389e-01,3.711282908916473389e-01,3.711282908916473389e-01,3.880857527256011963e-01,3.880857527256011963e-01,3.880857527256011963e-01,3.880857527256011963e-01,3.816572725772857666e-01,3.816572725772857666e-01,3.816572725772857666e-01,3.816572725772857666e-01,3.847939074039459229e-01,3.847939074039459229e-01,3.847939074039459229e-01,3.871171176433563232e-01,3.853155970573425293e-01,3.853155970573425293e-01,3.853155970573425293e-01,3.842174410820007324e-01,3.822895288467407227e-01,3.810364305973052979e-01
-8.124744147062301636e-02,-8.124744147062301636e-02,-8.124744147062301636e-02,-8.457390218973159790e-02,-8.457390218973159790e-02,-8.457390218973159790e-02,-8.457390218973159790e-02,-8.441872894763946533e-02,-8.441872894763946533e-02,-8.441872894763946533e-02,-9.354174882173538208e-02,-9.354174882173538208e-02,-9.354174882173538208e-02,-9.252969175577163696e-02,-9.252969175577163696e-02,-9.007580578327178955e-02,-9.007580578327178955e-02,-9.824822098016738892e-02,-9.824822098016738892e-02,-9.200425446033477783e-02,-9.200425446033477783e-02,-9.200425446033477783e-02,-8.400089293718338013e-02,-8.400089293718338013e-02,-8.400089293718338013e-02,-8.400089293718338013e-02,-7.589970529079437256e-02,-7.589970529079437256e-02,-6.822428852319717407e-02,-6.822428852319717407e-02,-6.822428852319717407e-02,-6.257700920104980469e-02,-6.257700920104980469e-02,-5.928462371230125427e-02,-7.292073965072631836e-02,-7.292073965072631836e-02,-7.292073965072631836e-02,-6.764379888772964478e-02,-6.764379888772964478e-02,-6.764379888772964478e-02,-6.343322992324829102e-02,-6.343322992324829102e-02,-6.343322992324829102e-02,-5.955521017313003540e-02,-5.955521017313003540e-02,-7.113973051309585571e-02,-7.113973051309585571e-02,-6.540248543024063110e-02,-6.540248543024063110e-02,-6.540248543024063110e-02,-6.169266998767852783e-02,-6.169266998767852783e-02,-6.169266998767852783e-02,-7.340960204601287842e-02,-7.340960204601287842e-02,-7.109235227108001709e-02,-7.109235227108001709e-02,-7.109235227108001709e-02,-8.201926201581954956e-02,-8.201926201581954956e-02,-8.201926201581954956e-02,-9.318323433399200439e-02,-9.410499781370162964e-02,-9.410499781370162964e-02,-9.410499781370162964e-02,-9.410499781370162964e-02,-1.002621948719024658e-01,-1.002621948719024658e-01,-1.002621948719024658e-01,-1.002621948719024658e-01,-9.976385533809661865e-02,-9.976385533809661865e-02,-9.976385533809661865e-02,-1.033951193094253540e-01,-1.306064613163471222e-02,-1.306064613163471222e-02,2.680230140686035156e-02,2.680230140686035156e-02,-9.186717122793197632e-02,-9.186717122793197632e-02,-3.955718874931335449e-02,-3.955718874931335449e-02,8.775213360786437988e-02,8.775213360786437988e-02,2.043779045343399048e-01,2.043779045343399048e-01,2.043779045343399048e-01,2.739814519882202148e-01,2.739814519882202148e-01,2.739814519882202148e-01,3.120934963226318359e-01,3.120934963226318359e-01,3.120934963226318359e-01,3.290344178676605225e-01,3.019355535507202148e-01,3.019355535507202148e-01,3.019355535507202148e-01,3.019355535507202148e-01,3.341959416866302490e-01,3.341959416866302490e-01,3.341959416866302490e-01,3.341959416866302490e-01,3.458474278450012207e-01,3.458474278450012207e-01,3.458474278450012207e-01,3.458474278450012207e-01,3.508477509021759033e-01,3.508477509021759033e-01,3.508477509021759033e-01,3.540322482585906982e-01,3.533049523830413818e-01,3.533049523830413818e-01,3.533049523830413818e-01,3.514134883880615234e-01,3.526005148887634277e-01,3.403393030166625977e-01
-1.889499127864837646e-01,-1.889499127864837646e-01,-1.889499127864837646e-01,-1.942187547683715820e-01,-1.942187547683715820e-01,-1.942187547683715820e-01,-1.942187547683715820e-01,-1.933368891477584839e-01,-1.933368891477584839e-01,-1.933368891477584839e-01,-1.956380158662796021e-01,-1.956380158662796021e-01,-1.956380158662796021e-01,-1.889107376337051392e-01,-1.889107376337051392e-01,-1.830611228942871094e-01,-1.830611228942871094e-01,-1.847342252731323242e-01,-1.847342252731323242e-01,-1.772299259901046753e-01,-1.772299259901046753e-01,-1.772299259901046753e-01,-1.680442690849304199e-01,-1.680442690849304199e-01,-1.680442690849304199e-01,-1.680442690849304199e-01,-1.584837138652801514e-01,-1.584837138652801514e-01,-1.463667154312133789e-01,-1.463667154312133789e-01,-1.463667154312133789e-01,-1.339089721441268921e-01,-1.339089721441268921e-01,-1.228350400924682617e-01,-1.367363184690475464e-01,-1.367363184690475464e-01,-1.367363184690475464e-01,-1.248668432235717773e-01,-1.248668432235717773e-01,-1.248668432235717773e-01,-1.165512427687644958e-01,-1.165512427687644958e-01,-1.165512427687644958e-01,-1.114407926797866821e-01,-1.114407926797866821e-01,-1.205788701772689819e-01,-1.205788701772689819e-01,-1.154557242989540100e-01,-1.154557242989540100e-01,-1.154557242989540100e-01,-1.133424118161201477e-01,-1.133424118161201477e-01,-1.133424118161201477e-01,-1.239719688892364502e-01,-1.239719688892364502e-01,-1.236935555934906006e-01,-1.236935555934906006e-01,-1.236935555934906006e-01,-1.335000395774841309e-01,-1.335000395774841309e-01,-1.335000395774841309e-01,-1.431056708097457886e-01,-1.466137319803237915e-01,-1.466137319803237915e-01,-1.466137319803237915e-01,-1.466137319803237915e-01,-1.480349600315093994e-01,-1.480349600315093994e-01,-1.480349600315093994e-01,-1.480349600315093994e-01,-1.441585570573806763e-01,-1.441585570573806763e-01,-1.441585570573806763e-01,-1.459231972694396973e-01,-5.477413907647132874e-02,-5.477413907647132874e-02,-1.930611766874790192e-02,-1.930611766874790192e-02,-1.294681578874588013e-01,-1.294681578874588013e-01,-7.561712712049484253e-02,-7.561712712049484253e-02,2.565306425094604492e-02,2.565306425094604492e-02,1.444468945264816284e-01,1.444468945264816284e-01,1.444468945264816284e-01,2.139322906732559204e-01,2.139322906732559204e-01,2.139322906732559204e-01,2.538188993930816650e-01,2.538188993930816650e-01,2.538188993930816650e-01,2.763329744338989258e-01,2.442915290594100952e-01,2.442915290594100952e-01,2.442915290594100952e-01,2.442915290594100952e-01,2.882155478000640869e-01,2.882155478000640869e-01,2.882155478000640869e-01,2.882155478000640869e-01,3.056378364562988281e-01,3.056378364562988281e-01,3.056378364562988281e-01,3.056378364562988281e-01,3.029155731201171875e-01,3.029155731201171875e-01,3.029155731201171875e-01,3.008635938167572021e-01,3.014660477638244629e-01,3.014660477638244629e-01,3.014660477638244629e-01,3.018928468227386475e-01,3.013200461864471436e-01,2.897592484951019287e-01
-1.548895239830017090e-01,-1.548895239830017090e-01,-1.548895239830017090e-01,-1.604934632778167725e-01,-1.604934632778167725e-01,-1.604934632778167725e-01,-1.604934632778167725e-01,-1.622876375913619995e-01,-1.622876375913619995e-01,-1.622876375913619995e-01,-1.676319092512130737e-01,-1.676319092512130737e-01,-1.676319092512130737e-01,-1.630925238132476807e-01,-1.630925238132476807e-01,-1.587630361318588257e-01,-1.587630361318588257e-01,-1.642206609249114990e-01,-1.642206609249114990e-01,-1.577371656894683838e-01,-1.577371656894683838e-01,-1.577371656894683838e-01,-1.509130150079727173e-01,-1.509130150079727173e-01,-1.509130150079727173e-01,-1.509130150079727173e-01,-1.435117572546005249e-01,-1.435117572546005249e-01,-1.353241354227066040e-01,-1.353241354227066040e-01,-1.353241354227066040e-01,-1.286366283893585205e-01,-1.286366283893585205e-01,-1.217555999755859375e-01,-1.337998956441879272e-01,-1.337998956441879272e-01,-1.337998956441879272e-01,-1.240647882223129272e-01,-1.240647882223129272e-01,-1.240647882223129272e-01,-1.162066832184791565e-01,-1.162066832184791565e-01,-1.162066832184791565e-01,-1.100221276283264160e-01,-1.100221276283264160e-01,-1.212565824389457703e-01,-1.212565824389457703e-01,-1.150042489171028137e-01,-1.150042489171028137e-01,-1.150042489171028137e-01,-1.131035163998603821e-01,-1.131035163998603821e-01,-1.131035163998603821e-01,-1.271723359823226929e-01,-1.271723359823226929e-01,-1.282967925071716309e-01,-1.282967925071716309e-01,-1.282967925071716309e-01,-1.387276649475097656e-01,-1.387276649475097656e-01,-1.387276649475097656e-01,-1.520331054925918579e-01,-1.648478507995605469e-01,-1.648478507995605469e-01,-1.648478507995605469e-01,-1.648478507995605469e-01,-1.703044325113296509e-01,-1.703044325113296509e-01,-1.703044325113296509e-01,-1.703044325113296509e-01,-1.562191992998123169e-01,-1.562191992998123169e-01,-1.562191992998123169e-01,-1.582033783197402954e-01,-6.410509347915649414e-02,-6.410509347915649414e-02,-1.412414596416056156e-03,-1.412414596416056156e-03,-1.418025493621826172e-01,-1.418025493621826172e-01,-7.629363983869552612e-02,-7.629363983869552612e-02,6.498876959085464478e-02,6.498876959085464478e-02,1.789438426494598389e-01,1.789438426494598389e-01,1.789438426494598389e-01,2.436850816011428833e-01,2.436850816011428833e-01,2.436850816011428833e-01,2.779202163219451904e-01,2.779202163219451904e-01,2.779202163219451904e-01,2.895483374595642090e-01,2.641715407371520996e-01,2.641715407371520996e-01,2.641715407371520996e-01,2.641715407371520996e-01,2.884781062602996826e-01,2.884781062602996826e-01,2.884781062602996826e-01,2.884781062602996826e-01,2.937996089458465576e-01,2.937996089458465576e-01,2.937996089458465576e-01,2.937996089458465576e-01,2.916506230831146240e-01,2.916506230831146240e-01,2.916506230831146240e-01,2.877008914947509766e-01,2.876101732254028320e-01,2.876101732254028320e-01,2.876101732254028320e-01,2.889385521411895752e-01,2.832918763160705566e-01,2.758319377899169922e-01
-1.453566849231719971e-01,-1.453566849231719971e-01,-1.453566849231719971e-01,-1.490347981452941895e-01,-1.490347981452941895e-01,-1.490347981452941895e-01,-1.490347981452941895e-01,-1.509881168603897095e-01,-1.509881168603897095e-01,-1.509881168603897095e-01,-1.574443280696868896e-01,-1.574443280696868896e-01,-1.574443280696868896e-01,-1.548595726490020752e-01,-1.548595726490020752e-01,-1.511870026588439941e-01,-1.511870026588439941e-01,-1.564598679542541504e-01,-1.564598679542541504e-01,-1.500503271818161011e-01,-1.500503271818161011e-01,-1.500503271818161011e-01,-1.435658484697341919e-01,-1.435658484697341919e-01,-1.435658484697341919e-01,-1.435658484697341919e-01,-1.370131969451904297e-01,-1.370131969451904297e-01,-1.297441422939300537e-01,-1.297441422939300537e-01,-1.297441422939300537e-01,-1.224736422300338745e-01,-1.224736422300338745e-01,-1.151757091283798218e-01,-1.272802650928497314e-01,-1.272802650928497314e-01,-1.272802650928497314e-01,-1.186761185526847839e-01,-1.186761185526847839e-01,-1.186761185526847839e-01,-1.111380681395530701e-01,-1.111380681395530701e-01,-1.111380681395530701e-01,-1.048738360404968262e-01,-1.048738360404968262e-01,-1.151454672217369080e-01,-1.151454672217369080e-01,-1.074643656611442566e-01,-1.074643656611442566e-01,-1.074643656611442566e-01,-1.043812111020088196e-01,-1.043812111020088196e-01,-1.043812111020088196e-01,-1.194285899400711060e-01,-1.194285899400711060e-01,-1.190079227089881897e-01,-1.190079227089881897e-01,-1.190079227089881897e-01,-1.308203488588333130e-01,-1.308203488588333130e-01,-1.308203488588333130e-01,-1.499126851558685303e-01,-1.629601269960403442e-01,-1.629601269960403442e-01,-1.629601269960403442e-01,-1.629601269960403442e-01,-1.756286323070526123e-01,-1.756286323070526123e-01,-1.756286323070526123e-01,-1.756286323070526123e-01,-1.577700078487396240e-01,-1.577700078487396240e-01,-1.577700078487396240e-01,-1.568176001310348511e-01,-3.936603292822837830e-02,-3.936603292822837830e-02,3.076639212667942047e-02,3.076639212667942047e-02,-1.497918516397476196e-01,-1.497918516397476196e-01,-7.983062416315078735e-02,-7.983062416315078735e-02,1.027001664042472839e-01,1.027001664042472839e-01,2.215120792388916016e-01,2.215120792388916016e-01,2.215120792388916016e-01,2.952083647251129150e-01,2.952083647251129150e-01,2.952083647251129150e-01,3.321537077426910400e-01,3.321537077426910400e-01,3.321537077426910400e-01,3.384994268417358398e-01,3.192119896411895752e-01,3.192119896411895752e-01,3.192119896411895752e-01,3.192119896411895752e-01,3.317835032939910889e-01,3.317835032939910889e-01,3.317835032939910889e-01,3.317835032939910889e-01,3.194465935230255127e-01,3.194465935230255127e-01,3.194465935230255127e-01,3.194465935230255127e-01,3.137272894382476807e-01,3.137272894382476807e-01,3.137272894382476807e-01,3.059358000755310059e-01,3.076913952827453613e-01,3.076913952827453613e-01,3.076913952827453613e-01,3.100048303604125977e-01,3.030121326446533203e-01,2.911600768566131592e-01
-9.462609887123107910e-02,-9.462609887123107910e-02,-9.462609887123107910e-02,-9.221268445253372192e-02,-9.221268445253372192e-02,-9.221268445253372192e-02,-9.221268445253372192e-02,-9.064368158578872681e-02,-9.064368158578872681e-02,-9.064368158578872681e-02,-9.519711136817932129e-02,-9.519711136817932129e-02,-9.519711136817932129e-02,-9.513092786073684692e-02,-9.513092786073684692e-02,-9.466724097728729248e-02,-9.466724097728729248e-02,-9.857252240180969238e-02,-9.857252240180969238e-02,-9.524314105510711670e-02,-9.524314105510711670e-02,-9.524314105510711670e-02,-9.249491244554519653e-02,-9.249491244554519653e-02,-9.249491244554519653e-02,-9.249491244554519653e-02,-8.949785679578781128e-02,-8.949785679578781128e-02,-8.600999414920806885e-02,-8.600999414920806885e-02,-8.600999414920806885e-02,-8.224917948246002197e-02,-8.224917948246002197e-02,-7.869151234626770020e-02,-8.384798467159271240e-02,-8.384798467159271240e-02,-8.384798467159271240e-02,-7.965727895498275757e-02,-7.965727895498275757e-02,-7.965727895498275757e-02,-7.490435242652893066e-02,-7.490435242652893066e-02,-7.490435242652893066e-02,-7.062916457653045654e-02,-7.062916457653045654e-02,-7.559539377689361572e-02,-7.559539377689361572e-02,-7.095140963792800903e-02,-7.095140963792800903e-02,-7.095140963792800903e-02,-7.044067978858947754e-02,-7.044067978858947754e-02,-7.044067978858947754e-02,-7.647810876369476318e-02,-7.647810876369476318e-02,-8.112473785877227783e-02,-8.112473785877227783e-02,-8.112473785877227783e-02,-8.393037319183349609e-02,-8.393037319183349609e-02,-8.393037319183349609e-02,-9.475254267454147339e-02,-1.140157058835029602e-01,-1.140157058835029602e-01,-1.140157058835029602e-01,-1.140157058835029602e-01,-1.204272359609603882e-01,-1.204272359609603882e-01,-1.204272359609603882e-01,-1.204272359609603882e-01,-9.219020605087280273e-02,-9.219020605087280273e-02,-9.219020605087280273e-02,-9.483038634061813354e-02,4.443427920341491699e-02,4.443427920341491699e-02,1.233196109533309937e-01,1.233196109533309937e-01,-9.102470427751541138e-02,-9.102470427751541138e-02,-9.456538595259189606e-03,-9.456538595259189606e-03,1.932211667299270630e-01,1.932211667299270630e-01,2.989110648632049561e-01,2.989110648632049561e-01,2.989110648632049561e-01,3.636821210384368896e-01,3.636821210384368896e-01,3.636821210384368896e-01,3.946107625961303711e-01,3.946107625961303711e-01,3.946107625961303711e-01,3.995638191699981689e-01,3.873559236526489258e-01,3.873559236526489258e-01,3.873559236526489258e-01,3.873559236526489258e-01,3.925945460796356201e-01,3.925945460796356201e-01,3.925945460796356201e-01,3.925945460796356201e-01,3.740499019622802734e-01,3.740499019622802734e-01,3.740499019622802734e-01,3.740499019622802734e-01,3.691408336162567139e-01,3.691408336162567139e-01,3.691408336162567139e-01,3.584144711494445801e-01,3.625456988811492920e-01,3.625456988811492920e-01,3.625456988811492920e-01,3.670327663421630859e-01,3.574792742729187012e-01,3.500632941722869873e-01
-9.110232442617416382e-02,-9.110232442617416382e-02,-9.110232442617416382e-02,-8.780537545680999756e-02,-8.780537545680999756e-02,-8.780537545680999756e-02,-8.780537545680999756e-02,-8.512632548809051514e-02,-8.512632548809051514e-02,-8.512632548809051514e-02,-8.427742868661880493e-02,-8.427742868661880493e-02,-8.427742868661880493e-02,-8.754832297563552856e-02,-8.754832297563552856e-02,-9.135904908180236816e-02,-9.135904908180236816e-02,-9.234460443258285522e-02,-9.234460443258285522e-02,-9.437780827283859253e-02,-9.437780827283859253e-02,-9.437780827283859253e-02,-9.479465335607528687e-02,-9.479465335607528687e-02,-9.479465335607528687e-02,-9.479465335607528687e-02,-9.401772916316986084e-02,-9.401772916316986084e-02,-9.228797256946563721e-02,-9.228797256946563721e-02,-9.228797256946563721e-02,-8.885952085256576538e-02,-8.885952085256576538e-02,-8.521248400211334229e-02,-8.913736790418624878e-02,-8.913736790418624878e-02,-8.913736790418624878e-02,-8.467897772789001465e-02,-8.467897772789001465e-02,-8.467897772789001465e-02,-7.992141693830490112e-02,-7.992141693830490112e-02,-7.992141693830490112e-02,-7.644644379615783691e-02,-7.644644379615783691e-02,-8.129459619522094727e-02,-8.129459619522094727e-02,-7.974594831466674805e-02,-7.974594831466674805e-02,-7.974594831466674805e-02,-8.196345716714859009e-02,-8.196345716714859009e-02,-8.196345716714859009e-02,-8.507269620895385742e-02,-8.507269620895385742e-02,-9.102082997560501099e-02,-9.102082997560501099e-02,-9.102082997560501099e-02,-9.492214769124984741e-02,-9.492214769124984741e-02,-9.492214769124984741e-02,-1.054764464497566223e-01,-1.243978217244148254e-01,-1.243978217244148254e-01,-1.243978217244148254e-01,-1.243978217244148254e-01,-1.240234747529029846e-01,-1.240234747529029846e-01,-1.240234747529029846e-01,-1.240234747529029846e-01,-1.067573130130767822e-01,-1.067573130130767822e-01,-1.067573130130767822e-01,-1.066663414239883423e-01,2.584804221987724304e-02,2.584804221987724304e-02,1.006296798586845398e-01,1.006296798586845398e-01,-1.003246158361434937e-01,-1.003246158361434937e-01,-1.468144357204437256e-02,-1.468144357204437256e-02,1.757143139839172363e-01,1.757143139839172363e-01,3.015970289707183838e-01,3.015970289707183838e-01,3.015970289707183838e-01,3.766287565231323242e-01,3.766287565231323242e-01,3.766287565231323242e-01,4.124325513839721680e-01,4.124325513839721680e-01,4.124325513839721680e-01,4.230001270771026611e-01,4.049778580665588379e-01,4.049778580665588379e-01,4.049778580665588379e-01,4.049778580665588379e-01,4.220500886440277100e-01,4.220500886440277100e-01,4.220500886440277100e-01,4.220500886440277100e-01,4.218946993350982666e-01,4.218946993350982666e-01,4.218946993350982666e-01,4.218946993350982666e-01,4.292480349540710449e-01,4.292480349540710449e-01,4.292480349540710449e-01,4.294323027133941650e-01,4.324720799922943115e-01,4.324720799922943115e-01,4.324720799922943115e-01,4.349043667316436768e-01,4.335118234157562256e-01,4.269663691520690918e-01
-6.919365376234054565e-02,-6.919365376234054565e-02,-6.919365376234054565e-02,-7.516212016344070435e-02,-7.516212016344070435e-02,-7.516212016344070435e-02,-7.516212016344070435e-02,-8.414764702320098877e-02,-8.414764702320098877e-02,-8.414764702320098877e-02,-9.466563910245895386e-02,-9.466563910245895386e-02,-9.466563910245895386e-02,-9.688317030668258667e-02,-9.688317030668258667e-02,-9.773112833499908447e-02,-9.773112833499908447e-02,-1.025012806057929993e-01,-1.025012806057929993e-01,-1.015022993087768555e-01,-1.015022993087768555e-01,-1.015022993087768555e-01,-1.006097197532653809e-01,-1.006097197532653809e-01,-1.006097197532653809e-01,-1.006097197532653809e-01,-9.986066818237304688e-02,-9.986066818237304688e-02,-9.848882257938385010e-02,-9.848882257938385010e-02,-9.848882257938385010e-02,-9.632916003465652466e-02,-9.632916003465652466e-02,-9.407197684049606323e-02,-9.793457388877868652e-02,-9.793457388877868652e-02,-9.793457388877868652e-02,-9.548980742692947388e-02,-9.548980742692947388e-02,-9.548980742692947388e-02,-9.271590411663055420e-02,-9.271590411663055420e-02,-9.271590411663055420e-02,-8.935359865427017212e-02,-8.935359865427017212e-02,-9.472453594207763672e-02,-9.472453594207763672e-02,-9.041176736354827881e-02,-9.041176736354827881e-02,-9.041176736354827881e-02,-8.854719996452331543e-02,-8.854719996452331543e-02,-8.854719996452331543e-02,-9.559527784585952759e-02,-9.559527784585952759e-02,-9.488617628812789917e-02,-9.488617628812789917e-02,-9.488617628812789917e-02,-1.019254028797149658e-01,-1.019254028797149658e-01,-1.019254028797149658e-01,-1.105476096272468567e-01,-1.177410781383514404e-01,-1.177410781383514404e-01,-1.177410781383514404e-01,-1.177410781383514404e-01,-1.197574883699417114e-01,-1.197574883699417114e-01,-1.197574883699417114e-01,-1.197574883699417114e-01,-1.083452180027961731e-01,-1.083452180027961731e-01,-1.083452180027961731e-01,-1.091654449701309204e-01,1.727530919015407562e-02,1.727530919015407562e-02,8.407035470008850098e-02,8.407035470008850098e-02,-9.886465966701507568e-02,-9.886465966701507568e-02,-1.703358814120292664e-02,-1.703358814120292664e-02,1.500998586416244507e-01,1.500998586416244507e-01,2.873664498329162598e-01,2.873664498329162598e-01,2.873664498329162598e-01,3.739952147006988525e-01,3.739952147006988525e-01,3.739952147006988525e-01,4.106068909168243408e-01,4.106068909168243408e-01,4.106068909168243408e-01,4.311072528362274170e-01,4.068781137466430664e-01,4.068781137466430664e-01,4.068781137466430664e-01,4.068781137466430664e-01,4.353335797786712646e-01,4.353335797786712646e-01,4.353335797786712646e-01,4.353335797786712646e-01,4.455004334449768066e-01,4.455004334449768066e-01,4.455004334449768066e-01,4.455004334449768066e-01,4.543678760528564453e-01,4.543678760528564453e-01,4.543678760528564453e-01,4.572626650333404541e-01,4.589410126209259033e-01,4.589410126209259033e-01,4.589410126209259033e-01,4.611105024814605713e-01,4.601552188396453857e-01,4.559037089347839355e-01
1.366592012345790863e-02,1.366592012345790863e-02,1.366592012345790863e-02,1.232304726727306843e-03,1.232304726727306843e-03,1.232304726727306843e-03,1.232304726727306843e-03,-1.387759391218423843e-02,-1.387759391218423843e-02,-1.387759391218423843e-02,-2.992444857954978943e-02,-2.992444857954978943e-02,-2.992444857954978943e-02,-3.359429910778999329e-02,-3.359429910778999329e-02,-3.608709573745727539e-02,-3.608709573745727539e-02,-4.696688055992126465e-02,-4.696688055992126465e-02,-4.707009717822074890e-02,-4.707009717822074890e-02,-4.707009717822074890e-02,-4.861917719244956970e-02,-4.861917719244956970e-02,-4.861917719244956970e-02,-4.861917719244956970e-02,-5.153283104300498962e-02,-5.153283104300498962e-02,-5.435292422771453857e-02,-5.435292422771453857e-02,-5.435292422771453857e-02,-5.673059076070785522e-02,-5.673059076070785522e-02,-5.867068469524383545e-02,-6.038356199860572815e-02,-6.038356199860572815e-02,-6.038356199860572815e-02,-6.202076002955436707e-02,-6.202076002955436707e-02,-6.202076002955436707e-02,-6.286415457725524902e-02,-6.286415457725524902e-02,-6.286415457725524902e-02,-6.373292952775955200e-02,-6.373292952775955200e-02,-6.594910472631454468e-02,-6.594910472631454468e-02,-6.523273140192031860e-02,-6.523273140192031860e-02,-6.523273140192031860e-02,-6.456499546766281128e-02,-6.456499546766281128e-02,-6.456499546766281128e-02,-6.799080222845077515e-02,-6.799080222845077515e-02,-6.935907900333404541e-02,-6.935907900333404541e-02,-6.935907900333404541e-02,-7.307980954647064209e-02,-7.307980954647064209e-02,-7.307980954647064209e-02,-8.092218637466430664e-02,-9.058042615652084351e-02,-9.058042615652084351e-02,-9.058042615652084351e-02,-9.058042615652084351e-02,-9.302195906639099121e-02,-9.302195906639099121e-02,-9.302195906639099121e-02,-9.302195906639099121e-02,-8.017713576555252075e-02,-8.017713576555252075e-02,-8.017713576555252075e-02,-8.173015713691711426e-02,4.170960560441017151e-02,4.170960560441017151e-02,1.065350994467735291e-01,1.065350994467735291e-01,-6.277164071798324585e-02,-6.277164071798324585e-02,1.549282856285572052e-02,1.549282856285572052e-02,1.748179197311401367e-01,1.748179197311401367e-01,3.028510808944702148e-01,3.028510808944702148e-01,3.028510808944702148e-01,3.785802423954010010e-01,3.785802423954010010e-01,3.785802423954010010e-01,4.077812731266021729e-01,4.077812731266021729e-01,4.077812731266021729e-01,4.226648211479187012e-01,4.072491228580474854e-01,4.072491228580474854e-01,4.072491228580474854e-01,4.072491228580474854e-01,4.349735677242279053e-01,4.349735677242279053e-01,4.349735677242279053e-01,4.349735677242279053e-01,4.524322450160980225e-01,4.524322450160980225e-01,4.524322450160980225e-01,4.524322450160980225e-01,4.634695649147033691e-01,4.634695649147033691e-01,4.634695649147033691e-01,4.721349179744720459e-01,4.712099134922027588e-01,4.712099134922027588e-01,4.712099134922027588e-01,4.710670113563537598e-01,4.737479686737060547e-01,4.687919616699218750e-01
5.892498418688774109e-02,5.892498418688774109e-02,5.892498418688774109e-02,5.958673730492591858e-02,5.958673730492591858e-02,5.958673730492591858e-02,5.958673730492591858e-02,5.535426735877990723e-02,5.535426735877990723e-02,5.535426735877990723e-02,4.795983806252479553e-02,4.795983806252479553e-02,4.795983806252479553e-02,4.255025833845138550e-02,4.255025833845138550e-02,3.699636459350585938e-02,3.699636459350585938e-02,2.900570631027221680e-02,2.900570631027221680e-02,2.208674512803554535e-02,2.208674512803554535e-02,2.208674512803554535e-02,1.153810694813728333e-02,1.153810694813728333e-02,1.153810694813728333e-02,1.153810694813728333e-02,-1.246839761734008789e-03,-1.246839761734008789e-03,-1.208481006324291229e-02,-1.208481006324291229e-02,-1.208481006324291229e-02,-2.108604460954666138e-02,-2.108604460954666138e-02,-3.105466812849044800e-02,-2.389583550393581390e-02,-2.389583550393581390e-02,-2.389583550393581390e-02,-3.465905413031578064e-02,-3.465905413031578064e-02,-3.465905413031578064e-02,-4.126136004924774170e-02,-4.126136004924774170e-02,-4.126136004924774170e-02,-4.509962350130081177e-02,-4.509962350130081177e-02,-3.940911591053009033e-02,-3.940911591053009033e-02,-4.270118102431297302e-02,-4.270118102431297302e-02,-4.270118102431297302e-02,-4.477011784911155701e-02,-4.477011784911155701e-02,-4.477011784911155701e-02,-4.401927068829536438e-02,-4.401927068829536438e-02,-5.141085386276245117e-02,-5.141085386276245117e-02,-5.141085386276245117e-02,-5.335162952542304993e-02,-5.335162952542304993e-02,-5.335162952542304993e-02,-5.740691721439361572e-02,-6.383765488862991333e-02,-6.383765488862991333e-02,-6.383765488862991333e-02,-6.383765488862991333e-02,-6.318824738264083862e-02,-6.318824738264083862e-02,-6.318824738264083862e-02,-6.318824738264083862e-02,-5.722148716449737549e-02,-5.722148716449737549e-02,-5.722148716449737549e-02,-5.764962732791900635e-02,1.980746909976005554e-02,1.980746909976005554e-02,8.140934258699417114e-02,8.140934258699417114e-02,-2.357693761587142944e-02,-2.357693761587142944e-02,3.414769843220710754e-02,3.414769843220710754e-02,1.433689743280410767e-01,1.433689743280410767e-01,2.663208544254302979e-01,2.663208544254302979e-01,2.663208544254302979e-01,3.407896459102630615e-01,3.407896459102630615e-01,3.407896459102630615e-01,3.738548457622528076e-01,3.738548457622528076e-01,3.738548457622528076e-01,3.948225677013397217e-01,3.742914497852325439e-01,3.742914497852325439e-01,3.742914497852325439e-01,3.742914497852325439e-01,4.123063385486602783e-01,4.123063385486602783e-01,4.123063385486602783e-01,4.123063385486602783e-01,4.368146061897277832e-01,4.368146061897277832e-01,4.368146061897277832e-01,4.368146061897277832e-01,4.383395910263061523e-01,4.383395910263061523e-01,4.383395910263061523e-01,4.393598437309265137e-01,4.374306797981262207e-01,4.374306797981262207e-01,4.374306797981262207e-01,4.364473223686218262e-01,4.376214742660522461e-01,4.323137998580932617e-01
7.455057650804519653e-02,7.455057650804519653e-02,7.455057650804519653e-02,5.870186164975166321e-02,5.870186164975166321e-02,5.870186164975166321e-02,5.870186164975166321e-02,4.501762986183166504e-02,4.501762986183166504e-02,4.501762986183166504e-02,2.692046947777271271e-02,2.692046947777271271e-02,2.692046947777271271e-02,2.829066477715969086e-02,2.829066477715969086e-02,3.329123184084892273e-02,3.329123184084892273e-02,2.086574956774711609e-02,2.086574956774711609e-02,2.872949093580245972e-02,2.872949093580245972e-02,2.872949093580245972e-02,3.449828550219535828e-02,3.449828550219535828e-02,3.449828550219535828e-02,3.449828550219535828e-02,3.631714358925819397e-02,3.631714358925819397e-02,3.455094620585441589e-02,3.455094620585441589e-02,3.455094620585441589e-02,2.766269817948341370e-02,2.766269817948341370e-02,1.501264981925487518e-02,1.990846171975135803e-02,1.990846171975135803e-02,1.990846171975135803e-02,7.204606197774410248e-03,7.204606197774410248e-03,7.204606197774410248e-03,-4.942058585584163666e-03,-4.942058585584163666e-03,-4.942058585584163666e-03,-1.457312051206827164e-02,-1.457312051206827164e-02,-8.878381922841072083e-03,-8.878381922841072083e-03,-1.577675901353359222e-02,-1.577675901353359222e-02,-1.577675901353359222e-02,-1.880470104515552521e-02,-1.880470104515552521e-02,-1.880470104515552521e-02,-1.858579926192760468e-02,-1.858579926192760468e-02,-2.260244637727737427e-02,-2.260244637727737427e-02,-2.260244637727737427e-02,-2.435049600899219513e-02,-2.435049600899219513e-02,-2.435049600899219513e-02,-3.494538366794586182e-02,-4.898666590452194214e-02,-4.898666590452194214e-02,-4.898666590452194214e-02,-4.898666590452194214e-02,-5.586589127779006958e-02,-5.586589127779006958e-02,-5.586589127779006958e-02,-5.586589127779006958e-02,-4.397462308406829834e-02,-4.397462308406829834e-02,-4.397462308406829834e-02,-4.306337237358093262e-02,4.922663047909736633e-02,4.922663047909736633e-02,1.007183939218521118e-01,1.007183939218521118e-01,-1.897525787353515625e-02,-1.897525787353515625e-02,3.801809996366500854e-02,3.801809996366500854e-02,1.598052531480789185e-01,1.598052531480789185e-01,2.751607298851013184e-01,2.751607298851013184e-01,2.751607298851013184e-01,3.495742380619049072e-01,3.495742380619049072e-01,3.495742380619049072e-01,3.869858980178833008e-01,3.869858980178833008e-01,3.869858980178833008e-01,4.151683449745178223e-01,3.858952224254608154e-01,3.858952224254608154e-01,3.858952224254608154e-01,3.858952224254608154e-01,4.363417327404022217e-01,4.363417327404022217e-01,4.363417327404022217e-01,4.363417327404022217e-01,4.645372331142425537e-01,4.645372331142425537e-01,4.645372331142425537e-01,4.645372331142425537e-01,4.633349776268005371e-01,4.633349776268005371e-01,4.633349776268005371e-01,4.549045562744140625e-01,4.570427834987640381e-01,4.570427834987640381e-01,4.570427834987640381e-01,4.607714414596557617e-01,4.543632566928863525e-01,4.490557610988616943e-01
9.986490011215209961e-02,9.986490011215209961e-02,9.986490011215209961e-02,9.686848521232604980e-02,9.686848521232604980e-02,9.686848521232604980e-02,9.686848521232604980e-02,8.591251820325851440e-02,8.591251820325851440e-02,8.591251820325851440e-02,6.666590273380279541e-02,6.666590273380279541e-02,6.666590273380279541e-02,6.731893122196197510e-02,6.731893122196197510e-02,7.039339840412139893e-02,7.039339840412139893e-02,5.644279345870018005e-02,5.644279345870018005e-02,6.037968769669532776e-02,6.037968769669532776e-02,6.037968769669532776e-02,6.146859377622604370e-02,6.146859377622604370e-02,6.146859377622604370e-02,6.146859377622604370e-02,6.255209445953369141e-02,6.255209445953369141e-02,6.463414430618286133e-02,6.463414430618286133e-02,6.463414430618286133e-02,6.461621075868606567e-02,6.461621075868606567e-02,5.871685221791267395e-02,6.183970347046852112e-02,6.183970347046852112e-02,6.183970347046852112e-02,5.732658877968788147e-02,5.732658877968788147e-02,5.732658877968788147e-02,4.517865180969238281e-02,4.517865180969238281e-02,4.517865180969238281e-02,3.079067915678024292e-02,3.079067915678024292e-02,4.163194447755813599e-02,4.163194447755813599e-02,3.064343519508838654e-02,3.064343519508838654e-02,3.064343519508838654e-02,1.922784000635147095e-02,1.922784000635147095e-02,1.922784000635147095e-02,1.920708455145359039e-02,1.920708455145359039e-02,2.398851211182773113e-04,2.398851211182773113e-04,2.398851211182773113e-04,-8.040243759751319885e-03,-8.040243759751319885e-03,-8.040243759751319885e-03,-2.486662939190864563e-02,-4.975492879748344421e-02,-4.975492879748344421e-02,-4.975492879748344421e-02,-4.975492879748344421e-02,-5.069527402520179749e-02,-5.069527402520179749e-02,-5.069527402520179749e-02,-5.069527402520179749e-02,-3.313795104622840881e-02,-3.313795104622840881e-02,-3.313795104622840881e-02,-3.665187954902648926e-02,7.871919870376586914e-02,7.871919870376586914e-02,1.348881125450134277e-01,1.348881125450134277e-01,-1.928942650556564331e-02,-1.928942650556564331e-02,5.347505211830139160e-02,5.347505211830139160e-02,2.062559574842453003e-01,2.062559574842453003e-01,3.277530074119567871e-01,3.277530074119567871e-01,3.277530074119567871e-01,4.023043215274810791e-01,4.023043215274810791e-01,4.023043215274810791e-01,4.377221763134002686e-01,4.377221763134002686e-01,4.377221763134002686e-01,4.558354318141937256e-01,4.349523782730102539e-01,4.349523782730102539e-01,4.349523782730102539e-01,4.349523782730102539e-01,4.606082141399383545e-01,4.606082141399383545e-01,4.606082141399383545e-01,4.606082141399383545e-01,4.656147062778472900e-01,4.656147062778472900e-01,4.656147062778472900e-01,4.656147062778472900e-01,4.641435146331787109e-01,4.641435146331787109e-01,4.641435146331787109e-01,4.642210602760314941e-01,4.608928859233856201e-01,4.608928859233856201e-01,4.608928859233856201e-01,4.588250219821929932e-01,4.562080800533294678e-01,4.534898400306701660e-01
4.934986308217048645e-02,4.934986308217048645e-02,4.934986308217048645e-02,4.907273873686790466e-02,4.907273873686790466e-02,4.907273873686790466e-02,4.907273873686790466e-02,5.346246436238288879e-02,5.346246436238288879e-02,5.346246436238288879e-02,4.573978856205940247e-02,4.573978856205940247e-02,4.573978856205940247e-02,4.747778177261352539e-02,4.747778177261352539e-02,4.977425932884216309e-02,4.977425932884216309e-02,4.275360330939292908e-02,4.275360330939292908e-02,4.912308603525161743e-02,4.912308603525161743e-02,4.912308603525161743e-02,5.226399376988410950e-02,5.226399376988410950e-02,5.226399376988410950e-02,5.226399376988410950e-02,5.276501551270484924e-02,5.276501551270484924e-02,5.143516138195991516e-02,5.143516138195991516e-02,5.143516138195991516e-02,5.351034551858901978e-02,5.351034551858901978e-02,5.256566777825355530e-02,5.341725423932075500e-02,5.341725423932075500e-02,5.341725423932075500e-02,5.062182620167732239e-02,5.062182620167732239e-02,5.062182620167732239e-02,4.804729297757148743e-02,4.804729297757148743e-02,4.804729297757148743e-02,4.881557822227478027e-02,4.881557822227478027e-02,4.753339663147926331e-02,4.753339663147926331e-02,4.789011925458908081e-02,4.789011925458908081e-02,4.789011925458908081e-02,4.432137683033943176e-02,4.432137683033943176e-02,4.432137683033943176e-02,3.618526831269264221e-02,3.618526831269264221e-02,2.960504777729511261e-02,2.960504777729511261e-02,2.960504777729511261e-02,2.021111175417900085e-02,2.021111175417900085e-02,2.021111175417900085e-02,-1.262209750711917877e-02,-3.733947873115539551e-02,-3.733947873115539551e-02,-3.733947873115539551e-02,-3.733947873115539551e-02,-6.020834669470787048e-02,-6.020834669470787048e-02,-6.020834669470787048e-02,-6.020834669470787048e-02,-4.432120919227600098e-02,-4.432120919227600098e-02,-4.432120919227600098e-02,-4.732439666986465454e-02,7.075108587741851807e-02,7.075108587741851807e-02,1.273661255836486816e-01,1.273661255836486816e-01,-3.200225532054901123e-02,-3.200225532054901123e-02,4.161685332655906677e-02,4.161685332655906677e-02,1.968466192483901978e-01,1.968466192483901978e-01,3.065992295742034912e-01,3.065992295742034912e-01,3.065992295742034912e-01,3.725282251834869385e-01,3.725282251834869385e-01,3.725282251834869385e-01,4.073863029479980469e-01,4.073863029479980469e-01,4.073863029479980469e-01,4.207021296024322510e-01,3.979493975639343262e-01,3.979493975639343262e-01,3.979493975639343262e-01,3.979493975639343262e-01,4.169135689735412598e-01,4.169135689735412598e-01,4.169135689735412598e-01,4.169135689735412598e-01,4.096173346042633057e-01,4.096173346042633057e-01,4.096173346042633057e-01,4.096173346042633057e-01,4.065538346767425537e-01,4.065538346767425537e-01,4.065538346767425537e-01,4.048704504966735840e-01,4.022724926471710205e-01,4.022724926471710205e-01,4.022724926471710205e-01,4.007745683193206787e-01,3.951001167297363281e-01,3.950372338294982910e-01
-5.791097879409790039e-02,-5.791097879409790039e-02,-5.791097879409790039e-02,-5.070158094167709351e-02,-5.070158094167709351e-02,-5.070158094167709351e-02,-5.070158094167709351e-02,-4.218591749668121338e-02,-4.218591749668121338e-02,-4.218591749668121338e-02,-4.147631302475929260e-02,-4.147631302475929260e-02,-4.147631302475929260e-02,-3.886072710156440735e-02,-3.886072710156440735e-02,-3.894551098346710205e-02,-3.894551098346710205e-02,-4.122294113039970398e-02,-4.122294113039970398e-02,-3.813465312123298645e-02,-3.813465312123298645e-02,-3.813465312123298645e-02,-3.599682077765464783e-02,-3.599682077765464783e-02,-3.599682077765464783e-02,-3.599682077765464783e-02,-3.312594816088676453e-02,-3.312594816088676453e-02,-3.022180870175361633e-02,-3.022180870175361633e-02,-3.022180870175361633e-02,-2.627175301313400269e-02,-2.627175301313400269e-02,-2.070204727351665497e-02,-2.725627273321151733e-02,-2.725627273321151733e-02,-2.725627273321151733e-02,-2.149056084454059601e-02,-2.149056084454059601e-02,-2.149056084454059601e-02,-1.816348358988761902e-02,-1.816348358988761902e-02,-1.816348358988761902e-02,-1.663515344262123108e-02,-1.663515344262123108e-02,-2.230278402566909790e-02,-2.230278402566909790e-02,-1.776290126144886017e-02,-1.776290126144886017e-02,-1.776290126144886017e-02,-1.272576581686735153e-02,-1.272576581686735153e-02,-1.272576581686735153e-02,-2.096202410757541656e-02,-2.096202410757541656e-02,-1.733293198049068451e-02,-1.733293198049068451e-02,-1.733293198049068451e-02,-2.379506081342697144e-02,-2.379506081342697144e-02,-2.379506081342697144e-02,-3.951306268572807312e-02,-4.856441542506217957e-02,-4.856441542506217957e-02,-4.856441542506217957e-02,-4.856441542506217957e-02,-6.392008066177368164e-02,-6.392008066177368164e-02,-6.392008066177368164e-02,-6.392008066177368164e-02,-5.509414896368980408e-02,-5.509414896368980408e-02,-5.509414896368980408e-02,-5.450355634093284607e-02,4.059570282697677612e-02,4.059570282697677612e-02,9.207607805728912354e-02,9.207607805728912354e-02,-4.482556134462356567e-02,-4.482556134462356567e-02,1.880476623773574829e-02,1.880476623773574829e-02,1.570845395326614380e-01,1.570845395326614380e-01,2.829356193542480469e-01,2.829356193542480469e-01,2.829356193542480469e-01,3.553446531295776367e-01,3.553446531295776367e-01,3.553446531295776367e-01,3.941771090030670166e-01,3.941771090030670166e-01,3.941771090030670166e-01,4.090001881122589111e-01,3.800280392169952393e-01,3.800280392169952393e-01,3.800280392169952393e-01,3.800280392169952393e-01,4.015869498252868652e-01,4.015869498252868652e-01,4.015869498252868652e-01,4.015869498252868652e-01,3.915623426437377930e-01,3.915623426437377930e-01,3.915623426437377930e-01,3.915623426437377930e-01,3.888946771621704102e-01,3.888946771621704102e-01,3.888946771621704102e-01,3.840785622596740723e-01,3.863079547882080078e-01,3.863079547882080078e-01,3.863079547882080078e-01,3.884490728378295898e-01,3.840318620204925537e-01,3.741613924503326416e-01
-1.396338492631912231e-01,-1.396338492631912231e-01,-1.396338492631912231e-01,-1.405180692672729492e-01,-1.405180692672729492e-01,-1.405180692672729492e-01,-1.405180692672729492e-01,-1.367866694927215576e-01,-1.367866694927215576e-01,-1.367866694927215576e-01,-1.362682282924652100e-01,-1.362682282924652100e-01,-1.362682282924652100e-01,-1.293725818395614624e-01,-1.293725818395614624e-01,-1.239707246422767639e-01,-1.239707246422767639e-01,-1.253356039524078369e-01,-1.253356039524078369e-01,-1.163625121116638184e-01,-1.163625121116638184e-01,-1.163625121116638184e-01,-1.092617064714431763e-01,-1.092617064714431763e-01,-1.092617064714431763e-01,-1.092617064714431763e-01,-1.032662019133567810e-01,-1.032662019133567810e-01,-9.896272420883178711e-02,-9.896272420883178711e-02,-9.896272420883178711e-02,-9.723467379808425903e-02,-9.723467379808425903e-02,-9.378847479820251465e-02,-9.172124415636062622e-02,-9.172124415636062622e-02,-9.172124415636062622e-02,-8.699282258749008179e-02,-8.699282258749008179e-02,-8.699282258749008179e-02,-7.999679446220397949e-02,-7.999679446220397949e-02,-7.999679446220397949e-02,-7.385862618684768677e-02,-7.385862618684768677e-02,-7.645922154188156128e-02,-7.645922154188156128e-02,-7.141876220703125000e-02,-7.141876220703125000e-02,-7.141876220703125000e-02,-6.784011423587799072e-02,-6.784011423587799072e-02,-6.784011423587799072e-02,-7.587147504091262817e-02,-7.587147504091262817e-02,-7.369321584701538086e-02,-7.369321584701538086e-02,-7.369321584701538086e-02,-8.229076862335205078e-02,-8.229076862335205078e-02,-8.229076862335205078e-02,-9.263397008180618286e-02,-9.559692442417144775e-02,-9.559692442417144775e-02,-9.559692442417144775e-02,-9.559692442417144775e-02,-1.073711663484573364e-01,-1.073711663484573364e-01,-1.073711663484573364e-01,-1.073711663484573364e-01,-1.034921109676361084e-01,-1.034921109676361084e-01,-1.034921109676361084e-01,-1.013559475541114807e-01,-6.294712424278259277e-02,-6.294712424278259277e-02,-1.089652162045240402e-02,-1.089652162045240402e-02,-8.572954684495925903e-02,-8.572954684495925903e-02,-3.521777689456939697e-02,-3.521777689456939697e-02,5.288733914494514465e-02,5.288733914494514465e-02,1.840139776468276978e-01,1.840139776468276978e-01,1.840139776468276978e-01,2.509568631649017334e-01,2.509568631649017334e-01,2.509568631649017334e-01,2.890436947345733643e-01,2.890436947345733643e-01,2.890436947345733643e-01,3.163696229457855225e-01,2.818666696548461914e-01,2.818666696548461914e-01,2.818666696548461914e-01,2.818666696548461914e-01,3.259547948837280273e-01,3.259547948837280273e-01,3.259547948837280273e-01,3.259547948837280273e-01,3.314099311828613281e-01,3.314099311828613281e-01,3.314099311828613281e-01,3.314099311828613281e-01,3.192106187343597412e-01,3.192106187343597412e-01,3.192106187343597412e-01,3.079351484775543213e-01,3.102555871009826660e-01,3.102555871009826660e-01,3.102555871009826660e-01,3.146071434020996094e-01,3.065111935138702393e-01,3.030127882957458496e-01
-1.477482020854949951e-01,-1.477482020854949951e-01,-1.477482020854949951e-01,-1.508159488439559937e-01,-1.508159488439559937e-01,-1.508159488439559937e-01,-1.508159488439559937e-01,-1.520068198442459106e-01,-1.520068198442459106e-01,-1.520068198442459106e-01,-1.561132967472076416e-01,-1.561132967472076416e-01,-1.561132967472076416e-01,-1.543796509504318237e-01,-1.543796509504318237e-01,-1.525910943746566772e-01,-1.525910943746566772e-01,-1.572374701499938965e-01,-1.572374701499938965e-01,-1.526172161102294922e-01,-1.526172161102294922e-01,-1.526172161102294922e-01,-1.471433937549591064e-01,-1.471433937549591064e-01,-1.471433937549591064e-01,-1.471433937549591064e-01,-1.415412873029708862e-01,-1.415412873029708862e-01,-1.359637528657913208e-01,-1.359637528657913208e-01,-1.359637528657913208e-01,-1.317844390869140625e-01,-1.317844390869140625e-01,-1.280174702405929565e-01,-1.333127021789550781e-01,-1.333127021789550781e-01,-1.333127021789550781e-01,-1.273088008165359497e-01,-1.273088008165359497e-01,-1.273088008165359497e-01,-1.209785118699073792e-01,-1.209785118699073792e-01,-1.209785118699073792e-01,-1.152867600321769714e-01,-1.152867600321769714e-01,-1.198787689208984375e-01,-1.198787689208984375e-01,-1.142406985163688660e-01,-1.142406985163688660e-01,-1.142406985163688660e-01,-1.107442900538444519e-01,-1.107442900538444519e-01,-1.107442900538444519e-01,-1.213373094797134399e-01,-1.213373094797134399e-01,-1.200172975659370422e-01,-1.200172975659370422e-01,-1.200172975659370422e-01,-1.286402642726898193e-01,-1.286402642726898193e-01,-1.286402642726898193e-01,-1.408323645591735840e-01,-1.502320021390914917e-01,-1.502320021390914917e-01,-1.502320021390914917e-01,-1.502320021390914917e-01,-1.554217338562011719e-01,-1.554217338562011719e-01,-1.554217338562011719e-01,-1.554217338562011719e-01,-1.447805613279342651e-01,-1.447805613279342651e-01,-1.447805613279342651e-01,-1.441307514905929565e-01,-6.761056184768676758e-02,-6.761056184768676758e-02,-1.694689318537712097e-02,-1.694689318537712097e-02,-1.239554882049560547e-01,-1.239554882049560547e-01,-7.110334932804107666e-02,-7.110334932804107666e-02,4.778137803077697754e-02,4.778137803077697754e-02,1.540496945381164551e-01,1.540496945381164551e-01,1.540496945381164551e-01,2.115563750267028809e-01,2.115563750267028809e-01,2.115563750267028809e-01,2.448058873414993286e-01,2.448058873414993286e-01,2.448058873414993286e-01,2.671156227588653564e-01,2.394226640462875366e-01,2.394226640462875366e-01,2.394226640462875366e-01,2.394226640462875366e-01,2.828577160835266113e-01,2.828577160835266113e-01,2.828577160835266113e-01,2.828577160835266113e-01,2.932576835155487061e-01,2.932576835155487061e-01,2.932576835155487061e-01,2.932576835155487061e-01,2.830686867237091064e-01,2.830686867237091064e-01,2.830686867237091064e-01,2.713002264499664307e-01,2.734964787960052490e-01,2.734964787960052490e-01,2.734964787960052490e-01,2.762795090675354004e-01,2.694892585277557373e-01,2.569390237331390381e-01
-9.427275508642196655e-02,-9.427275508642196655e-02,-9.427275508642196655e-02,-1.048082336783409119e-01,-1.048082336783409119e-01,-1.048082336783409119e-01,-1.048082336783409119e-01,-1.138299554586410522e-01,-1.138299554586410522e-01,-1.138299554586410522e-01,-1.214377582073211670e-01,-1.214377582073211670e-01,-1.214377582073211670e-01,-1.207825616002082825e-01,-1.207825616002082825e-01,-1.198988258838653564e-01,-1.198988258838653564e-01,-1.253277212381362915e-01,-1.253277212381362915e-01,-1.217121183872222900e-01,-1.217121183872222900e-01,-1.217121183872222900e-01,-1.183811426162719727e-01,-1.183811426162719727e-01,-1.183811426162719727e-01,-1.183811426162719727e-01,-1.155734136700630188e-01,-1.155734136700630188e-01,-1.130398437380790710e-01,-1.130398437380790710e-01,-1.130398437380790710e-01,-1.102947890758514404e-01,-1.102947890758514404e-01,-1.074470430612564087e-01,-1.124058812856674194e-01,-1.124058812856674194e-01,-1.124058812856674194e-01,-1.083805859088897705e-01,-1.083805859088897705e-01,-1.083805859088897705e-01,-1.032993420958518982e-01,-1.032993420958518982e-01,-1.032993420958518982e-01,-9.834849089384078979e-02,-9.834849089384078979e-02,-1.030737459659576416e-01,-1.030737459659576416e-01,-9.734030812978744507e-02,-9.734030812978744507e-02,-9.734030812978744507e-02,-9.409960359334945679e-02,-9.409960359334945679e-02,-9.409960359334945679e-02,-1.045339256525039673e-01,-1.045339256525039673e-01,-1.036214828491210938e-01,-1.036214828491210938e-01,-1.036214828491210938e-01,-1.134859994053840637e-01,-1.134859994053840637e-01,-1.134859994053840637e-01,-1.274748146533966064e-01,-1.350818425416946411e-01,-1.350818425416946411e-01,-1.350818425416946411e-01,-1.350818425416946411e-01,-1.418201029300689697e-01,-1.418201029300689697e-01,-1.418201029300689697e-01,-1.418201029300689697e-01,-1.322228014469146729e-01,-1.322228014469146729e-01,-1.322228014469146729e-01,-1.320299208164215088e-01,-4.835052788257598877e-02,-4.835052788257598877e-02,8.566753007471561432e-03,8.566753007471561432e-03,-1.133696064352989197e-01,-1.133696064352989197e-01,-5.543217435479164124e-02,-5.543217435479164124e-02,7.428862899541854858e-02,7.428862899541854858e-02,1.798051744699478149e-01,1.798051744699478149e-01,1.798051744699478149e-01,2.406482547521591187e-01,2.406482547521591187e-01,2.406482547521591187e-01,2.744043767452239990e-01,2.744043767452239990e-01,2.744043767452239990e-01,2.913554906845092773e-01,2.687198221683502197e-01,2.687198221683502197e-01,2.687198221683502197e-01,2.687198221683502197e-01,3.026256859302520752e-01,3.026256859302520752e-01,3.026256859302520752e-01,3.026256859302520752e-01,3.107082545757293701e-01,3.107082545757293701e-01,3.107082545757293701e-01,3.107082545757293701e-01,2.969741821289062500e-01,2.969741821289062500e-01,2.969741821289062500e-01,2.830395698547363281e-01,2.857005596160888672e-01,2.857005596160888672e-01,2.857005596160888672e-01,2.901768386363983154e-01,2.799038589000701904e-01,2.724156975746154785e-01
-8.080407977104187012e-02,-8.080407977104187012e-02,-8.080407977104187012e-02,-9.068216383457183838e-02,-9.068216383457183838e-02,-9.068216383457183838e-02,-9.068216383457183838e-02,-9.971269965171813965e-02,-9.971269965171813965e-02,-9.971269965171813965e-02,-1.131036579608917236e-01,-1.131036579608917236e-01,-1.131036579608917236e-01,-1.106896772980690002e-01,-1.106896772980690002e-01,-1.056633889675140381e-01,-1.056633889675140381e-01,-1.166070699691772461e-01,-1.166070699691772461e-01,-1.094257235527038574e-01,-1.094257235527038574e-01,-1.094257235527038574e-01,-1.024891957640647888e-01,-1.024891957640647888e-01,-1.024891957640647888e-01,-1.024891957640647888e-01,-9.531157463788986206e-02,-9.531157463788986206e-02,-8.826859295368194580e-02,-8.826859295368194580e-02,-8.826859295368194580e-02,-8.323536068201065063e-02,-8.323536068201065063e-02,-8.073548227548599243e-02,-9.101685881614685059e-02,-9.101685881614685059e-02,-9.101685881614685059e-02,-8.749830722808837891e-02,-8.749830722808837891e-02,-8.749830722808837891e-02,-8.579920232295989990e-02,-8.579920232295989990e-02,-8.579920232295989990e-02,-8.480393886566162109e-02,-8.480393886566162109e-02,-9.141620248556137085e-02,-9.141620248556137085e-02,-8.744364231824874878e-02,-8.744364231824874878e-02,-8.744364231824874878e-02,-8.513806015253067017e-02,-8.513806015253067017e-02,-8.513806015253067017e-02,-9.648559987545013428e-02,-9.648559987545013428e-02,-9.545571357011795044e-02,-9.545571357011795044e-02,-9.545571357011795044e-02,-1.032840237021446228e-01,-1.032840237021446228e-01,-1.032840237021446228e-01,-1.188859790563583374e-01,-1.312264353036880493e-01,-1.312264353036880493e-01,-1.312264353036880493e-01,-1.312264353036880493e-01,-1.384128779172897339e-01,-1.384128779172897339e-01,-1.384128779172897339e-01,-1.384128779172897339e-01,-1.188442558050155640e-01,-1.188442558050155640e-01,-1.188442558050155640e-01,-1.206339225172996521e-01,3.965707728639245033e-04,3.965707728639245033e-04,6.410089880228042603e-02,6.410089880228042603e-02,-1.010730713605880737e-01,-1.010730713605880737e-01,-2.827388606965541840e-02,-2.827388606965541840e-02,1.369692832231521606e-01,1.369692832231521606e-01,2.446839511394500732e-01,2.446839511394500732e-01,2.446839511394500732e-01,3.080061972141265869e-01,3.080061972141265869e-01,3.080061972141265869e-01,3.404752910137176514e-01,3.404752910137176514e-01,3.404752910137176514e-01,3.456554114818572998e-01,3.253263831138610840e-01,3.253263831138610840e-01,3.253263831138610840e-01,3.253263831138610840e-01,3.394041955471038818e-01,3.394041955471038818e-01,3.394041955471038818e-01,3.394041955471038818e-01,3.254631757736206055e-01,3.254631757736206055e-01,3.254631757736206055e-01,3.254631757736206055e-01,3.109649717807769775e-01,3.109649717807769775e-01,3.109649717807769775e-01,2.930534780025482178e-01,2.975057363510131836e-01,2.975057363510131836e-01,2.975057363510131836e-01,3.028751015663146973e-01,2.912542521953582764e-01,2.892084419727325439e-01
-1.047769282013177872e-02,-1.047769282013177872e-02,-1.047769282013177872e-02,-1.018010079860687256e-02,-1.018010079860687256e-02,-1.018010079860687256e-02,-1.018010079860687256e-02,-1.546996925026178360e-02,-1.546996925026178360e-02,-1.546996925026178360e-02,-2.758331969380378723e-02,-2.758331969380378723e-02,-2.758331969380378723e-02,-3.141422197222709656e-02,-3.141422197222709656e-02,-3.453527763485908508e-02,-3.453527763485908508e-02,-4.379653930664062500e-02,-4.379653930664062500e-02,-4.504922404885292053e-02,-4.504922404885292053e-02,-4.504922404885292053e-02,-4.703802987933158875e-02,-4.703802987933158875e-02,-4.703802987933158875e-02,-4.703802987933158875e-02,-4.880850389599800110e-02,-4.880850389599800110e-02,-4.902702942490577698e-02,-4.902702942490577698e-02,-4.902702942490577698e-02,-4.728536307811737061e-02,-4.728536307811737061e-02,-4.394000023603439331e-02,-4.933416843414306641e-02,-4.933416843414306641e-02,-4.933416843414306641e-02,-4.565677046775817871e-02,-4.565677046775817871e-02,-4.565677046775817871e-02,-4.360296577215194702e-02,-4.360296577215194702e-02,-4.360296577215194702e-02,-4.437673464417457581e-02,-4.437673464417457581e-02,-4.864335432648658752e-02,-4.864335432648658752e-02,-5.057523399591445923e-02,-5.057523399591445923e-02,-5.057523399591445923e-02,-5.456423759460449219e-02,-5.456423759460449219e-02,-5.456423759460449219e-02,-5.618250742554664612e-02,-5.618250742554664612e-02,-6.153753772377967834e-02,-6.153753772377967834e-02,-6.153753772377967834e-02,-6.656569987535476685e-02,-6.656569987535476685e-02,-6.656569987535476685e-02,-8.168636262416839600e-02,-9.492665529251098633e-02,-9.492665529251098633e-02,-9.492665529251098633e-02,-9.492665529251098633e-02,-1.013851463794708252e-01,-1.013851463794708252e-01,-1.013851463794708252e-01,-1.013851463794708252e-01,-9.316079318523406982e-02,-9.316079318523406982e-02,-9.316079318523406982e-02,-9.214095026254653931e-02,7.334495428949594498e-03,7.334495428949594498e-03,7.473787665367126465e-02,7.473787665367126465e-02,-6.828077882528305054e-02,-6.828077882528305054e-02,6.823739968240261078e-03,6.823739968240261078e-03,1.436121761798858643e-01,1.436121761798858643e-01,2.667002081871032715e-01,2.667002081871032715e-01,2.667002081871032715e-01,3.381266891956329346e-01,3.381266891956329346e-01,3.381266891956329346e-01,3.759340047836303711e-01,3.759340047836303711e-01,3.759340047836303711e-01,3.941863775253295898e-01,3.650566041469573975e-01,3.650566041469573975e-01,3.650566041469573975e-01,3.650566041469573975e-01,3.878403306007385254e-01,3.878403306007385254e-01,3.878403306007385254e-01,3.878403306007385254e-01,3.867604434490203857e-01,3.867604434490203857e-01,3.867604434490203857e-01,3.867604434490203857e-01,3.858516216278076172e-01,3.858516216278076172e-01,3.858516216278076172e-01,3.783167004585266113e-01,3.811010122299194336e-01,3.811010122299194336e-01,3.811010122299194336e-01,3.842807114124298096e-01,3.766281306743621826e-01,3.729965984821319580e-01
2.231684327125549316e-02,2.231684327125549316e-02,2.231684327125549316e-02,1.106010470539331436e-02,1.106010470539331436e-02,1.106010470539331436e-02,1.106010470539331436e-02,-1.113644539145752788e-04,-1.113644539145752788e-04,-1.113644539145752788e-04,-1.402574498206377029e-02,-1.402574498206377029e-02,-1.402574498206377029e-02,-1.458920631557703018e-02,-1.458920631557703018e-02,-1.269973441958427429e-02,-1.269973441958427429e-02,-2.518561296164989471e-02,-2.518561296164989471e-02,-1.971136964857578278e-02,-1.971136964857578278e-02,-1.971136964857578278e-02,-1.719432696700096130e-02,-1.719432696700096130e-02,-1.719432696700096130e-02,-1.719432696700096130e-02,-1.752073131501674652e-02,-1.752073131501674652e-02,-1.838240958750247955e-02,-1.838240958750247955e-02,-1.838240958750247955e-02,-1.860051788389682770e-02,-1.860051788389682770e-02,-1.871619559824466705e-02,-2.104074135422706604e-02,-2.104074135422706604e-02,-2.104074135422706604e-02,-1.991469226777553558e-02,-1.991469226777553558e-02,-1.991469226777553558e-02,-1.789291389286518097e-02,-1.789291389286518097e-02,-1.789291389286518097e-02,-1.538090966641902924e-02,-1.538090966641902924e-02,-1.969986036419868469e-02,-1.969986036419868469e-02,-1.668583415448665619e-02,-1.668583415448665619e-02,-1.668583415448665619e-02,-1.740305870771408081e-02,-1.740305870771408081e-02,-1.740305870771408081e-02,-2.527896314859390259e-02,-2.527896314859390259e-02,-2.663868106901645660e-02,-2.663868106901645660e-02,-2.663868106901645660e-02,-3.284851461648941040e-02,-3.284851461648941040e-02,-3.284851461648941040e-02,-5.042729899287223816e-02,-6.718480587005615234e-02,-6.718480587005615234e-02,-6.718480587005615234e-02,-6.718480587005615234e-02,-7.927887886762619019e-02,-7.927887886762619019e-02,-7.927887886762619019e-02,-7.927887886762619019e-02,-6.432541459798812866e-02,-6.432541459798812866e-02,-6.432541459798812866e-02,-6.298547983169555664e-02,6.383076310157775879e-02,6.383076310157775879e-02,1.246263161301612854e-01,1.246263161301612854e-01,-5.789833888411521912e-02,-5.789833888411521912e-02,1.592561788856983185e-02,1.592561788856983185e-02,1.900677680969238281e-01,1.900677680969238281e-01,3.095677495002746582e-01,3.095677495002746582e-01,3.095677495002746582e-01,3.832612931728363037e-01,3.832612931728363037e-01,3.832612931728363037e-01,4.228872358798980713e-01,4.228872358798980713e-01,4.228872358798980713e-01,4.373752176761627197e-01,4.115212857723236084e-01,4.115212857723236084e-01,4.115212857723236084e-01,4.115212857723236084e-01,4.273385405540466309e-01,4.273385405540466309e-01,4.273385405540466309e-01,4.273385405540466309e-01,4.246486127376556396e-01,4.246486127376556396e-01,4.246486127376556396e-01,4.246486127376556396e-01,4.324050545692443848e-01,4.324050545692443848e-01,4.324050545692443848e-01,4.314649105072021484e-01,4.345357418060302734e-01,4.345357418060302734e-01,4.345357418060302734e-01,4.384732842445373535e-01,4.343646764755249023e-01,4.337600469589233398e-01
4.807844385504722595e-02,4.807844385504722595e-02,4.807844385504722595e-02,3.877989202737808228e-02,3.877989202737808228e-02,3.877989202737808228e-02,3.877989202737808228e-02,3.338778391480445862e-02,3.338778391480445862e-02,3.338778391480445862e-02,2.518294379115104675e-02,2.518294379115104675e-02,2.518294379115104675e-02,2.627798169851303101e-02,2.627798169851303101e-02,3.040767833590507507e-02,3.040767833590507507e-02,1.816863007843494415e-02,1.816863007843494415e-02,2.312799356877803802e-02,2.312799356877803802e-02,2.312799356877803802e-02,2.283627912402153015e-02,2.283627912402153015e-02,2.283627912402153015e-02,2.283627912402153015e-02,1.669902727007865906e-02,1.669902727007865906e-02,9.404870681464672089e-03,9.404870681464672089e-03,9.404870681464672089e-03,1.605729572474956512e-03,1.605729572474956512e-03,-1.004285179078578949e-02,-1.483827945776283741e-03,-1.483827945776283741e-03,-1.483827945776283741e-03,-1.214835047721862793e-02,-1.214835047721862793e-02,-1.214835047721862793e-02,-1.975742541253566742e-02,-1.975742541253566742e-02,-1.975742541253566742e-02,-2.485795505344867706e-02,-2.485795505344867706e-02,-1.986537873744964600e-02,-1.986537873744964600e-02,-2.659047022461891174e-02,-2.659047022461891174e-02,-2.659047022461891174e-02,-3.166111186146736145e-02,-3.166111186146736145e-02,-3.166111186146736145e-02,-2.806093916296958923e-02,-2.806093916296958923e-02,-3.794008865952491760e-02,-3.794008865952491760e-02,-3.794008865952491760e-02,-3.758412972092628479e-02,-3.758412972092628479e-02,-3.758412972092628479e-02,-4.450108483433723450e-02,-6.668180227279663086e-02,-6.668180227279663086e-02,-6.668180227279663086e-02,-6.668180227279663086e-02,-7.303532958030700684e-02,-7.303532958030700684e-02,-7.303532958030700684e-02,-7.303532958030700684e-02,-6.164221838116645813e-02,-6.164221838116645813e-02,-6.164221838116645813e-02,-6.266748160123825073e-02,2.914789319038391113e-02,2.914789319038391113e-02,1.059950739145278931e-01,1.059950739145278931e-01,-4.862012714147567749e-02,-4.862012714147567749e-02,2.552027069032192230e-02,2.552027069032192230e-02,1.782958209514617920e-01,1.782958209514617920e-01,3.159951865673065186e-01,3.159951865673065186e-01,3.159951865673065186e-01,3.956431746482849121e-01,3.956431746482849121e-01,3.956431746482849121e-01,4.304682016372680664e-01,4.304682016372680664e-01,4.304682016372680664e-01,4.490586817264556885e-01,4.238015413284301758e-01,4.238015413284301758e-01,4.238015413284301758e-01,4.238015413284301758e-01,4.489311277866363525e-01,4.489311277866363525e-01,4.489311277866363525e-01,4.489311277866363525e-01,4.547579884529113770e-01,4.547579884529113770e-01,4.547579884529113770e-01,4.547579884529113770e-01,4.617078006267547607e-01,4.617078006267547607e-01,4.617078006267547607e-01,4.659319818019866943e-01,4.655767679214477539e-01,4.655767679214477539e-01,4.655767679214477539e-01,4.656169414520263672e-01,4.656057357788085938e-01,4.620728790760040283e-01
6.968192756175994873e-02,6.968192756175994873e-02,6.968192756175994873e-02,4.594728723168373108e-02,4.594728723168373108e-02,4.594728723168373108e-02,4.594728723168373108e-02,3.171273693442344666e-02,3.171273693442344666e-02,3.171273693442344666e-02,1.091524027287960052e-02,1.091524027287960052e-02,1.091524027287960052e-02,2.020980417728424072e-02,2.020980417728424072e-02,3.168113529682159424e-02,3.168113529682159424e-02,8.179791271686553955e-03,8.179791271686553955e-03,2.326992526650428772e-02,2.326992526650428772e-02,2.326992526650428772e-02,3.754882141947746277e-02,3.754882141947746277e-02,3.754882141947746277e-02,3.754882141947746277e-02,4.851279407739639282e-02,4.851279407739639282e-02,5.400645732879638672e-02,5.400645732879638672e-02,5.400645732879638672e-02,5.258868262171745300e-02,5.258868262171745300e-02,4.410871490836143494e-02,3.359418734908103943e-02,3.359418734908103943e-02,3.359418734908103943e-02,2.810528501868247986e-02,2.810528501868247986e-02,2.810528501868247986e-02,1.650390028953552246e-02,1.650390028953552246e-02,1.650390028953552246e-02,1.400834531523287296e-03,1.400834531523287296e-03,4.991745576262474060e-03,4.991745576262474060e-03,-5.530247464776039124e-03,-5.530247464776039124e-03,-5.530247464776039124e-03,-1.402699854224920273e-02,-1.402699854224920273e-02,-1.402699854224920273e-02,-1.082355063408613205e-02,-1.082355063408613205e-02,-1.790042407810688019e-02,-1.790042407810688019e-02,-1.790042407810688019e-02,-1.541333179920911789e-02,-1.541333179920911789e-02,-1.541333179920911789e-02,-2.034096606075763702e-02,-3.627035394310951233e-02,-3.627035394310951233e-02,-3.627035394310951233e-02,-3.627035394310951233e-02,-3.860717266798019409e-02,-3.860717266798019409e-02,-3.860717266798019409e-02,-3.860717266798019409e-02,-2.779037319123744965e-02,-2.779037319123744965e-02,-2.779037319123744965e-02,-2.857317216694355011e-02,4.964003339409828186e-02,4.964003339409828186e-02,1.147862523794174194e-01,1.147862523794174194e-01,3.018767805770039558e-03,3.018767805770039558e-03,6.063273921608924866e-02,6.063273921608924866e-02,1.816937029361724854e-01,1.816937029361724854e-01,2.991349101066589355e-01,2.991349101066589355e-01,2.991349101066589355e-01,3.718513250350952148e-01,3.718513250350952148e-01,3.718513250350952148e-01,4.066846370697021484e-01,4.066846370697021484e-01,4.066846370697021484e-01,4.209487438201904297e-01,4.010417163372039795e-01,4.010417163372039795e-01,4.010417163372039795e-01,4.010417163372039795e-01,4.219110906124114990e-01,4.219110906124114990e-01,4.219110906124114990e-01,4.219110906124114990e-01,4.251297414302825928e-01,4.251297414302825928e-01,4.251297414302825928e-01,4.251297414302825928e-01,4.304059147834777832e-01,4.304059147834777832e-01,4.304059147834777832e-01,4.322956502437591553e-01,4.328494369983673096e-01,4.328494369983673096e-01,4.328494369983673096e-01,4.346910417079925537e-01,4.336363673210144043e-01,4.288142025470733643e-01
6.003731489181518555e-02,6.003731489181518555e-02,6.003731489181518555e-02,5.272030830383300781e-02,5.272030830383300781e-02,5.272030830383300781e-02,5.272030830383300781e-02,4.720782116055488586e-02,4.720782116055488586e-02,4.720782116055488586e-02,3.300871700048446655e-02,3.300871700048446655e-02,3.300871700048446655e-02,3.831788152456283569e-02,3.831788152456283569e-02,4.765058308839797974e-02,4.765058308839797974e-02,3.147293627262115479e-02,3.147293627262115479e-02,4.222369939088821411e-02,4.222369939088821411e-02,4.222369939088821411e-02,5.221948027610778809e-02,5.221948027610778809e-02,5.221948027610778809e-02,5.221948027610778809e-02,6.098224595189094543e-02,6.098224595189094543e-02,6.889383494853973389e-02,6.889383494853973389e-02,6.889383494853973389e-02,7.475540786981582642e-02,7.475540786981582642e-02,7.810733467340469360e-02,5.691368132829666138e-02,5.691368132829666138e-02,5.691368132829666138e-02,6.076476350426673889e-02,6.076476350426673889e-02,6.076476350426673889e-02,6.101180985569953918e-02,6.101180985569953918e-02,6.101180985569953918e-02,4.747537150979042053e-02,4.747537150979042053e-02,3.622867539525032043e-02,3.622867539525032043e-02,1.441159937530755997e-02,1.441159937530755997e-02,1.441159937530755997e-02,-9.455081075429916382e-03,-9.455081075429916382e-03,-9.455081075429916382e-03,-7.608887273818254471e-03,-7.608887273818254471e-03,-1.961825601756572723e-02,-1.961825601756572723e-02,-1.961825601756572723e-02,-1.898679696023464203e-02,-1.898679696023464203e-02,-1.898679696023464203e-02,-2.596919052302837372e-02,-3.532113879919052124e-02,-3.532113879919052124e-02,-3.532113879919052124e-02,-3.532113879919052124e-02,-4.077062010765075684e-02,-4.077062010765075684e-02,-4.077062010765075684e-02,-4.077062010765075684e-02,-3.361303359270095825e-02,-3.361303359270095825e-02,-3.361303359270095825e-02,-3.492482751607894897e-02,1.654525846242904663e-02,1.654525846242904663e-02,6.633982062339782715e-02,6.633982062339782715e-02,-6.720680277794599533e-03,-6.720680277794599533e-03,2.453273162245750427e-02,2.453273162245750427e-02,1.013209819793701172e-01,1.013209819793701172e-01,2.083755731582641602e-01,2.083755731582641602e-01,2.083755731582641602e-01,2.737672626972198486e-01,2.737672626972198486e-01,2.737672626972198486e-01,3.089354932308197021e-01,3.089354932308197021e-01,3.089354932308197021e-01,3.348781466484069824e-01,3.109736740589141846e-01,3.109736740589141846e-01,3.109736740589141846e-01,3.109736740589141846e-01,3.557732701301574707e-01,3.557732701301574707e-01,3.557732701301574707e-01,3.557732701301574707e-01,3.844695687294006348e-01,3.844695687294006348e-01,3.844695687294006348e-01,3.844695687294006348e-01,3.866466879844665527e-01,3.866466879844665527e-01,3.866466879844665527e-01,3.872571885585784912e-01,3.853303790092468262e-01,3.853303790092468262e-01,3.853303790092468262e-01,3.842341005802154541e-01,3.831945657730102539e-01,3.781689107418060303e-01
9.968765825033187866e-02,9.968765825033187866e-02,9.968765825033187866e-02,9.541275352239608765e-02,9.541275352239608765e-02,9.541275352239608765e-02,9.541275352239608765e-02,8.967503160238265991e-02,8.967503160238265991e-02,8.967503160238265991e-02,7.366465777158737183e-02,7.366465777158737183e-02,7.366465777158737183e-02,7.344658672809600830e-02,7.344658672809600830e-02,7.836726307868957520e-02,7.836726307868957520e-02,6.298245489597320557e-02,6.298245489597320557e-02,7.379766553640365601e-02,7.379766553640365601e-02,7.379766553640365601e-02,8.574923127889633179e-02,8.574923127889633179e-02,8.574923127889633179e-02,8.574923127889633179e-02,9.773812443017959595e-02,9.773812443017959595e-02,1.090021505951881409e-01,1.090021505951881409e-01,1.090021505951881409e-01,1.170720905065536499e-01,1.170720905065536499e-01,1.205615475773811340e-01,1.071879118680953979e-01,1.071879118680953979e-01,1.071879118680953979e-01,1.151952072978019714e-01,1.151952072978019714e-01,1.151952072978019714e-01,1.225905269384384155e-01,1.225905269384384155e-01,1.225905269384384155e-01,1.270940303802490234e-01,1.270940303802490234e-01,1.095551103353500366e-01,1.095551103353500366e-01,1.091807559132575989e-01,1.091807559132575989e-01,1.091807559132575989e-01,9.758395701646804810e-02,9.758395701646804810e-02,9.758395701646804810e-02,8.212600648403167725e-02,8.212600648403167725e-02,6.719163060188293457e-02,6.719163060188293457e-02,6.719163060188293457e-02,5.407605692744255066e-02,5.407605692744255066e-02,5.407605692744255066e-02,2.627669088542461395e-02,-1.392712001688778400e-03,-1.392712001688778400e-03,-1.392712001688778400e-03,-1.392712001688778400e-03,-1.532329246401786804e-02,-1.532329246401786804e-02,-1.532329246401786804e-02,-1.532329246401786804e-02,-5.539150442928075790e-03,-5.539150442928075790e-03,-5.539150442928075790e-03,-7.754116784781217575e-03,6.271331012248992920e-02,6.271331012248992920e-02,1.074183657765388489e-01,1.074183657765388489e-01,1.124658435583114624e-02,1.124658435583114624e-02,5.784112215042114258e-02,5.784112215042114258e-02,1.756540983915328979e-01,1.756540983915328979e-01,2.699073255062103271e-01,2.699073255062103271e-01,2.699073255062103271e-01,3.251550793647766113e-01,3.251550793647766113e-01,3.251550793647766113e-01,3.522840440273284912e-01,3.522840440273284912e-01,3.522840440273284912e-01,3.631613552570343018e-01,3.466697931289672852e-01,3.466697931289672852e-01,3.466697931289672852e-01,3.466697931289672852e-01,3.741832375526428223e-01,3.741832375526428223e-01,3.741832375526428223e-01,3.741832375526428223e-01,3.842347562313079834e-01,3.842347562313079834e-01,3.842347562313079834e-01,3.842347562313079834e-01,3.787386119365692139e-01,3.787386119365692139e-01,3.787386119365692139e-01,3.747489750385284424e-01,3.716398477554321289e-01,3.716398477554321289e-01,3.716398477554321289e-01,3.693675994873046875e-01,3.649543821811676025e-01,3.597887754440307617e-01
1.918687671422958374e-02,1.918687671422958374e-02,1.918687671422958374e-02,1.026563998311758041e-02,1.026563998311758041e-02,1.026563998311758041e-02,1.026563998311758041e-02,9.109493345022201538e-03,9.109493345022201538e-03,9.109493345022201538e-03,1.947531709447503090e-03,1.947531709447503090e-03,1.947531709447503090e-03,5.036923568695783615e-03,5.036923568695783615e-03,1.004278566688299179e-02,1.004278566688299179e-02,2.752440283074975014e-03,2.752440283074975014e-03,9.714484214782714844e-03,9.714484214782714844e-03,9.714484214782714844e-03,1.708505116403102875e-02,1.708505116403102875e-02,1.708505116403102875e-02,1.708505116403102875e-02,2.635592408478260040e-02,2.635592408478260040e-02,3.778646141290664673e-02,3.778646141290664673e-02,3.778646141290664673e-02,5.071342736482620239e-02,5.071342736482620239e-02,6.372142583131790161e-02,3.845274820923805237e-02,3.845274820923805237e-02,3.845274820923805237e-02,5.136698856949806213e-02,5.136698856949806213e-02,5.136698856949806213e-02,6.240422278642654419e-02,6.240422278642654419e-02,6.240422278642654419e-02,7.100930064916610718e-02,7.100930064916610718e-02,4.371942952275276184e-02,4.371942952275276184e-02,5.267714709043502808e-02,5.267714709043502808e-02,5.267714709043502808e-02,5.296598747372627258e-02,5.296598747372627258e-02,5.296598747372627258e-02,2.922397106885910034e-02,2.922397106885910034e-02,3.109758161008358002e-02,3.109758161008358002e-02,3.109758161008358002e-02,1.361445430666208267e-02,1.361445430666208267e-02,1.361445430666208267e-02,-1.026473380625247955e-02,-2.489109896123409271e-02,-2.489109896123409271e-02,-2.489109896123409271e-02,-2.489109896123409271e-02,-3.869012370705604553e-02,-3.869012370705604553e-02,-3.869012370705604553e-02,-3.869012370705604553e-02,-2.587651275098323822e-02,-2.587651275098323822e-02,-2.587651275098323822e-02,-2.976571768522262573e-02,6.585165858268737793e-02,6.585165858268737793e-02,1.074682846665382385e-01,1.074682846665382385e-01,-1.487154234200716019e-02,-1.487154234200716019e-02,3.881021216511726379e-02,3.881021216511726379e-02,1.664909124374389648e-01,1.664909124374389648e-01,2.589791715145111084e-01,2.589791715145111084e-01,2.589791715145111084e-01,3.165388405323028564e-01,3.165388405323028564e-01,3.165388405323028564e-01,3.482370972633361816e-01,3.482370972633361816e-01,3.482370972633361816e-01,3.588664829730987549e-01,3.402848541736602783e-01,3.402848541736602783e-01,3.402848541736602783e-01,3.402848541736602783e-01,3.593401610851287842e-01,3.593401610851287842e-01,3.593401610851287842e-01,3.593401610851287842e-01,3.501456379890441895e-01,3.501456379890441895e-01,3.501456379890441895e-01,3.501456379890441895e-01,3.436725139617919922e-01,3.436725139617919922e-01,3.436725139617919922e-01,3.424497842788696289e-01,3.399061262607574463e-01,3.399061262607574463e-01,3.399061262607574463e-01,3.394830822944641113e-01,3.357472717761993408e-01,3.343536555767059326e-01
-6.881587952375411987e-02,-6.881587952375411987e-02,-6.881587952375411987e-02,-6.975608319044113159e-02,-6.975608319044113159e-02,-6.975608319044113159e-02,-6.975608319044113159e-02,-6.320004165172576904e-02,-6.320004165172576904e-02,-6.320004165172576904e-02,-6.001489982008934021e-02,-6.001489982008934021e-02,-6.001489982008934021e-02,-5.864924564957618713e-02,-5.864924564957618713e-02,-5.706407502293586731e-02,-5.706407502293586731e-02,-5.667785927653312683e-02,-5.667785927653312683e-02,-5.389099568128585815e-02,-5.389099568128585815e-02,-5.389099568128585815e-02,-5.127408355474472046e-02,-5.127408355474472046e-02,-5.127408355474472046e-02,-5.127408355474472046e-02,-4.614150151610374451e-02,-4.614150151610374451e-02,-3.922215849161148071e-02,-3.922215849161148071e-02,-3.922215849161148071e-02,-2.990991622209548950e-02,-2.990991622209548950e-02,-2.075224183499813080e-02,-2.912912890315055847e-02,-2.912912890315055847e-02,-2.912912890315055847e-02,-2.060735411942005157e-02,-2.060735411942005157e-02,-2.060735411942005157e-02,-1.348070893436670303e-02,-1.348070893436670303e-02,-1.348070893436670303e-02,-7.581577636301517487e-03,-7.581577636301517487e-03,-1.796520315110683441e-02,-1.796520315110683441e-02,-1.244997233152389526e-02,-1.244997233152389526e-02,-1.244997233152389526e-02,-1.124930847436189651e-02,-1.124930847436189651e-02,-1.124930847436189651e-02,-2.374341152608394623e-02,-2.374341152608394623e-02,-2.463530749082565308e-02,-2.463530749082565308e-02,-2.463530749082565308e-02,-3.794113919138908386e-02,-3.794113919138908386e-02,-3.794113919138908386e-02,-5.489748343825340271e-02,-6.725632399320602417e-02,-6.725632399320602417e-02,-6.725632399320602417e-02,-6.725632399320602417e-02,-7.529281824827194214e-02,-7.529281824827194214e-02,-7.529281824827194214e-02,-7.529281824827194214e-02,-6.930274516344070435e-02,-6.930274516344070435e-02,-6.930274516344070435e-02,-7.080446928739547729e-02,2.991679310798645020e-02,2.991679310798645020e-02,7.540938258171081543e-02,7.540938258171081543e-02,-6.101181730628013611e-02,-6.101181730628013611e-02,5.483365966938436031e-04,5.483365966938436031e-04,1.348204761743545532e-01,1.348204761743545532e-01,2.497370094060897827e-01,2.497370094060897827e-01,2.497370094060897827e-01,3.187827467918395996e-01,3.187827467918395996e-01,3.187827467918395996e-01,3.548909127712249756e-01,3.548909127712249756e-01,3.548909127712249756e-01,3.679223060607910156e-01,3.339226841926574707e-01,3.339226841926574707e-01,3.339226841926574707e-01,3.339226841926574707e-01,3.500664234161376953e-01,3.500664234161376953e-01,3.500664234161376953e-01,3.500664234161376953e-01,3.341547250747680664e-01,3.341547250747680664e-01,3.341547250747680664e-01,3.341547250747680664e-01,3.267054259777069092e-01,3.267054259777069092e-01,3.267054259777069092e-01,3.175006806850433350e-01,3.175463080406188965e-01,3.175463080406188965e-01,3.175463080406188965e-01,3.187103271484375000e-01,3.107922077178955078e-01,3.031300604343414307e-01
-1.049858033657073975e-01,-1.049858033657073975e-01,-1.049858033657073975e-01,-1.123912036418914795e-01,-1.123912036418914795e-01,-1.123912036418914795e-01,-1.123912036418914795e-01,-1.154792159795761108e-01,-1.154792159795761108e-01,-1.154792159795761108e-01,-1.231043338775634766e-01,-1.231043338775634766e-01,-1.231043338775634766e-01,-1.177656129002571106e-01,-1.177656129002571106e-01,-1.129556894302368164e-01,-1.129556894302368164e-01,-1.185735091567039490e-01,-1.185735091567039490e-01,-1.097914204001426697e-01,-1.097914204001426697e-01,-1.097914204001426697e-01,-1.008092314004898071e-01,-1.008092314004898071e-01,-1.008092314004898071e-01,-1.008092314004898071e-01,-9.242299199104309082e-02,-9.242299199104309082e-02,-8.225714415311813354e-02,-8.225714415311813354e-02,-8.225714415311813354e-02,-7.301718741655349731e-02,-7.301718741655349731e-02,-6.381043046712875366e-02,-7.640410214662551880e-02,-7.640410214662551880e-02,-7.640410214662551880e-02,-6.555483490228652954e-02,-6.555483490228652954e-02,-6.555483490228652954e-02,-5.462568253278732300e-02,-5.462568253278732300e-02,-5.462568253278732300e-02,-4.513073340058326721e-02,-4.513073340058326721e-02,-5.873161181807518005e-02,-5.873161181807518005e-02,-5.028972402215003967e-02,-5.028972402215003967e-02,-5.028972402215003967e-02,-4.480602592229843140e-02,-4.480602592229843140e-02,-4.480602592229843140e-02,-5.907670408487319946e-02,-5.907670408487319946e-02,-5.376333743333816528e-02,-5.376333743333816528e-02,-5.376333743333816528e-02,-6.638912856578826904e-02,-6.638912856578826904e-02,-6.638912856578826904e-02,-7.949057221412658691e-02,-8.273094892501831055e-02,-8.273094892501831055e-02,-8.273094892501831055e-02,-8.273094892501831055e-02,-8.923710882663726807e-02,-8.923710882663726807e-02,-8.923710882663726807e-02,-8.923710882663726807e-02,-8.455785363912582397e-02,-8.455785363912582397e-02,-8.455785363912582397e-02,-8.424896001815795898e-02,1.554464455693960190e-02,1.554464455693960190e-02,6.786771863698959351e-02,6.786771863698959351e-02,-7.855010032653808594e-02,-7.855010032653808594e-02,-1.935958303511142731e-02,-1.935958303511142731e-02,1.194809302687644958e-01,1.194809302687644958e-01,2.356991916894912720e-01,2.356991916894912720e-01,2.356991916894912720e-01,3.073396980762481689e-01,3.073396980762481689e-01,3.073396980762481689e-01,3.462335169315338135e-01,3.462335169315338135e-01,3.462335169315338135e-01,3.642636835575103760e-01,3.269005715847015381e-01,3.269005715847015381e-01,3.269005715847015381e-01,3.269005715847015381e-01,3.449459671974182129e-01,3.449459671974182129e-01,3.449459671974182129e-01,3.449459671974182129e-01,3.249912261962890625e-01,3.249912261962890625e-01,3.249912261962890625e-01,3.249912261962890625e-01,3.155906200408935547e-01,3.155906200408935547e-01,3.155906200408935547e-01,3.009391725063323975e-01,3.046753704547882080e-01,3.046753704547882080e-01,3.046753704547882080e-01,3.102377057075500488e-01,2.993424236774444580e-01,2.918602526187896729e-01
-1.657600998878479004e-01,-1.657600998878479004e-01,-1.657600998878479004e-01,-1.764383465051651001e-01,-1.764383465051651001e-01,-1.764383465051651001e-01,-1.764383465051651001e-01,-1.811056435108184814e-01,-1.811056435108184814e-01,-1.811056435108184814e-01,-1.890600025653839111e-01,-1.890600025653839111e-01,-1.890600025653839111e-01,-1.835496872663497925e-01,-1.835496872663497925e-01,-1.760819852352142334e-01,-1.760819852352142334e-01,-1.819438636302947998e-01,-1.819438636302947998e-01,-1.718574613332748413e-01,-1.718574613332748413e-01,-1.718574613332748413e-01,-1.619738787412643433e-01,-1.619738787412643433e-01,-1.619738787412643433e-01,-1.619738787412643433e-01,-1.535320281982421875e-01,-1.535320281982421875e-01,-1.461548805236816406e-01,-1.461548805236816406e-01,-1.461548805236816406e-01,-1.390515565872192383e-01,-1.390515565872192383e-01,-1.323379129171371460e-01,-1.426852643489837646e-01,-1.426852643489837646e-01,-1.426852643489837646e-01,-1.336347013711929321e-01,-1.336347013711929321e-01,-1.336347013711929321e-01,-1.252572983503341675e-01,-1.252572983503341675e-01,-1.252572983503341675e-01,-1.174770593643188477e-01,-1.174770593643188477e-01,-1.272899508476257324e-01,-1.272899508476257324e-01,-1.191872805356979370e-01,-1.191872805356979370e-01,-1.191872805356979370e-01,-1.148609593510627747e-01,-1.148609593510627747e-01,-1.148609593510627747e-01,-1.272207647562026978e-01,-1.272207647562026978e-01,-1.236205473542213440e-01,-1.236205473542213440e-01,-1.236205473542213440e-01,-1.346697956323623657e-01,-1.346697956323623657e-01,-1.346697956323623657e-01,-1.463718563318252563e-01,-1.455689817667007446e-01,-1.455689817667007446e-01,-1.455689817667007446e-01,-1.455689817667007446e-01,-1.493356972932815552e-01,-1.493356972932815552e-01,-1.493356972932815552e-01,-1.493356972932815552e-01,-1.447949856519699097e-01,-1.447949856519699097e-01,-1.447949856519699097e-01,-1.446266770362854004e-01,-6.271629780530929565e-02,-6.271629780530929565e-02,-1.124014612287282944e-02,-1.124014612287282944e-02,-1.367465257644653320e-01,-1.367465257644653320e-01,-7.864828407764434814e-02,-7.864828407764434814e-02,3.957229107618331909e-02,3.957229107618331909e-02,1.499464213848114014e-01,1.499464213848114014e-01,1.499464213848114014e-01,2.129163891077041626e-01,2.129163891077041626e-01,2.129163891077041626e-01,2.487355470657348633e-01,2.487355470657348633e-01,2.487355470657348633e-01,2.684246301651000977e-01,2.349359244108200073e-01,2.349359244108200073e-01,2.349359244108200073e-01,2.349359244108200073e-01,2.661448717117309570e-01,2.661448717117309570e-01,2.661448717117309570e-01,2.661448717117309570e-01,2.614915966987609863e-01,2.614915966987609863e-01,2.614915966987609863e-01,2.614915966987609863e-01,2.499288916587829590e-01,2.499288916587829590e-01,2.499288916587829590e-01,2.408387064933776855e-01,2.441639304161071777e-01,2.441639304161071777e-01,2.441639304161071777e-01,2.483758628368377686e-01,2.421490401029586792e-01,2.334949821233749390e-01
